-5.046305077242363879e+00 4.810445616280060221e+01 1.137231554386233334e+01
-5.170690682099845503e+00 4.812439565150756238e+01 1.199568235866587429e+01
-5.156147509115977634e+00 4.809673566907738262e+01 1.108305472221962873e+01
-5.003657335793943339e+00 4.818087943037298260e+01 1.188999845582572057e+01
-5.032040890366529240e+00 4.801439464673374857e+01 1.175996283844446033e+01
-5.035814405708737063e+00 4.803799940904140442e+01 1.178094438753803175e+01
-5.064613323945162726e+00 4.807569329402967639e+01 1.111107544537911807e+01
-5.041387066426564090e+00 4.811811196533269452e+01 1.157367513244665247e+01
-5.131422471728050105e+00 4.811348007966465445e+01 1.110857012282630762e+01
-5.102571981996833372e+00 4.812845785959603973e+01 1.198146529755844014e+01
-4.997435854716512971e+00 4.815201017595056499e+01 1.108914819635433702e+01
-5.140454923251394526e+00 4.808759110693492289e+01 1.114156943254728382e+01
-5.105317034642438578e+00 4.810036747805084190e+01 1.187069906904735106e+01
-5.035547698171605191e+00 4.807201636270223588e+01 1.181898444858007124e+01
-5.087481950712523293e+00 4.813430732412571444e+01 1.203605354386933790e+01
-5.134950399162320878e+00 4.809546227627970438e+01 1.126764746692218111e+01
-5.110080297285771955e+00 4.811358645247491239e+01 1.143553150183946521e+01
-5.122371049563404277e+00 4.821532469019449962e+01 1.139284316350971871e+01
-5.094622848600415033e+00 4.808228537497439703e+01 1.157784992630046794e+01
-5.147567534593083138e+00 4.807451942923175636e+01 1.125142789855086178e+01
-5.063453336474422528e+00 4.809845086870198827e+01 1.141694761013421555e+01
-5.050377295803214039e+00 4.821228583143788171e+01 1.173634181597704540e+01
-5.004249504617445332e+00 4.810687516582061107e+01 1.198361968778531050e+01
-4.999547314535305098e+00 4.819745271528344688e+01 1.178925990699446480e+01
-4.970596127228702699e+00 4.810559413694531372e+01 1.155746488109429926e+01
-5.086312398108091770e+00 4.809155183993023996e+01 1.187552492725955489e+01
-5.016254133020379591e+00 4.814034259663844750e+01 1.116361920199727820e+01
-5.096218835480948783e+00 4.810089205469460438e+01 1.190516692002838361e+01
-5.116857285338330286e+00 4.808479621774937129e+01 1.127271937624980680e+01
-5.121532741579421177e+00 4.809615574048120124e+01 1.179278828647277422e+01
-5.092235277568734730e+00 4.816267228661232735e+01 1.171971639888143635e+01
-5.015052401410722283e+00 4.820351001369289179e+01 1.166948185697692431e+01
-5.066037289893764672e+00 4.796193147435353410e+01 1.160054453852952783e+01
-5.042408743239669811e+00 4.810355005143533447e+01 1.139715923076139426e+01
-5.115574322166706267e+00 4.814025138352503319e+01 1.170841331112990069e+01
-5.060194622807300036e+00 4.809880181033823732e+01 1.150543638835818072e+01
-5.060438560305939859e+00 4.807056995228924023e+01 1.137522484600446582e+01
-5.102634498871810642e+00 4.809297210042199566e+01 1.165730167065084544e+01
-5.139147193008185788e+00 4.808403531968974676e+01 1.173958214369987729e+01
-5.136916824045880681e+00 4.804830567092162852e+01 1.129363155541007657e+01
-5.115518985605245206e+00 4.808544979669566999e+01 1.126396342314421695e+01
-5.096148669300642808e+00 4.803658360247175807e+01 1.107028388480480530e+01
-5.167446468873349019e+00 4.801494476100253195e+01 1.126399500407215726e+01
-4.989836317976640956e+00 4.803649146220573840e+01 1.157883789268918129e+01
-5.091111409020411926e+00 4.800748484755013834e+01 1.123938824860538155e+01
-5.108762073418321670e+00 4.812614041669733211e+01 1.125177891299185617e+01
-5.058803600084138985e+00 4.812302722970472502e+01 1.198696346565675697e+01
-5.109431129025331586e+00 4.811222108827042376e+01 1.135168945386504546e+01
-5.112627775287549525e+00 4.811974347696543219e+01 1.177049134064462699e+01
-5.125930131942740609e+00 4.814180998616505036e+01 1.140680548673457295e+01
-5.082081055037040329e+00 4.799954262846141262e+01 1.137184175943486686e+01
-5.177942906204156870e+00 4.820226448173261247e+01 1.172979687611660715e+01
-5.048116462105845414e+00 4.806555368467957123e+01 1.176882066628590984e+01
-5.201393558683619744e+00 4.809691409959659580e+01 1.164413374497046938e+01
-5.122477487961906384e+00 4.801454900898677636e+01 1.161872773522432567e+01
-5.190947454284212448e+00 4.816768861663668844e+01 1.117601027194157304e+01
-5.082353922953278591e+00 4.821661865048824325e+01 1.122544420984587710e+01
-5.057177570493777807e+00 4.815714787894098947e+01 1.139117206555426698e+01
-5.138182970447046749e+00 4.808916337549514708e+01 1.203261025131660666e+01
-4.983898626874144533e+00 4.809631355693690580e+01 1.180766091310424493e+01
-5.038811858192423720e+00 4.807650919725176664e+01 1.103904884524238739e+01
-5.208242008429563974e+00 4.810868760787407439e+01 1.196685249495270398e+01
-5.107277315982654997e+00 4.809421050369657991e+01 1.167745807655239254e+01
-5.093854170040028606e+00 4.810124966660059442e+01 1.145980252543819589e+01
-5.144934312182640745e+00 4.803832137306314110e+01 1.142590397623682108e+01
-5.145443464386806554e+00 4.811070483978934220e+01 1.154781431527795554e+01
-5.209842924675693432e+00 4.802253891984379663e+01 1.175284670534796305e+01
-5.141457437726889346e+00 4.811885224681412865e+01 1.176680984337557945e+01
-5.129038583750877400e+00 4.805758958889980192e+01 1.111765180519857665e+01
-5.025914863056908821e+00 4.803559129708943232e+01 1.136338417682521218e+01
-5.080225831170321449e+00 4.797792755873328474e+01 1.130314115452456392e+01
-5.054252689753643502e+00 4.804043461417121819e+01 1.174428299833705935e+01
-5.055355702213713442e+00 4.795979378959304285e+01 1.151895143421794998e+01
-5.158778318201262536e+00 4.805861326974518022e+01 1.203149612371613131e+01
-5.063738867838012858e+00 4.805804023385140766e+01 1.116576079699810542e+01
-4.985997170314587557e+00 4.815901463222459000e+01 1.156072146975918180e+01
-5.196666042427302123e+00 4.805764588454599107e+01 1.112444573282252414e+01
-5.030818601401091605e+00 4.817163308528373022e+01 1.179428001645442947e+01
-5.021868419587393717e+00 4.805848587657868620e+01 1.149179304919449329e+01
-5.040691618480994229e+00 4.810193464405507058e+01 1.172715811250348139e+01
-5.023816603275230719e+00 4.809012592651986040e+01 1.149404418475708667e+01
-5.087517887584174225e+00 4.810132195731604554e+01 1.169964796200722112e+01
-5.144027543503570499e+00 4.811721643641229917e+01 1.121163079632579418e+01
-5.189177843749257946e+00 4.801661921869364846e+01 1.133146954406446483e+01
-5.153381008262437390e+00 4.809125275848970205e+01 1.150178563497255624e+01
-5.062736033183504958e+00 4.799964402277249320e+01 1.105794350066317477e+01
-5.058208657031432409e+00 4.812684058532271081e+01 1.175492716666011184e+01
-5.093398011615781762e+00 4.809472444915426337e+01 1.180892290659822841e+01
-5.122831309190225113e+00 4.810090485249584447e+01 1.154287158875079555e+01
-5.074711937172889265e+00 4.807139418499957628e+01 1.161598475987956292e+01
-5.056297748213714804e+00 4.796924072411382411e+01 1.201228929428927295e+01
-5.099567349296158625e+00 4.799801751569339814e+01 1.190779785343468866e+01
-5.004369946444258588e+00 4.804212627955242709e+01 1.127441021806433952e+01
-4.985574599503400428e+00 4.815554866470576911e+01 1.199463043165362031e+01
-5.117717062412781459e+00 4.819490209712076734e+01 1.115869118791965064e+01
-5.005417084354496282e+00 4.806620177340025180e+01 1.115872809554848644e+01
-5.115898236078510131e+00 4.819398030520927279e+01 1.199829977132543135e+01
-5.062286244056179108e+00 4.805616604162989347e+01 1.119281826484007425e+01
-5.087921629355710351e+00 4.824629419015771958e+01 1.178475031639285220e+01
-5.001443859905057465e+00 4.805440437052680380e+01 1.126225541115308637e+01
-5.083851051235301455e+00 4.810032632977009825e+01 1.157427791204888123e+01
-5.023750228955780273e+00 4.811243030009827493e+01 1.140871795868175553e+01
-5.042813941260058108e+00 4.816595406093724563e+01 1.189312330354688463e+01
-5.102470696905144543e+00 4.819788034894421003e+01 1.178219077394135716e+01
-5.092955297534251358e+00 4.808256845079952058e+01 1.140534244207640668e+01
-4.997647409606441826e+00 4.813114953152712161e+01 1.124012989317114730e+01
-4.958090752769813925e+00 4.807974434064358604e+01 1.131349263926806081e+01
-5.101709871432798415e+00 4.809954664049792683e+01 1.137568726343074665e+01
-5.105977075968985979e+00 4.798146777498646287e+01 1.193195044736509125e+01
-5.101200722411896038e+00 4.808163618714373655e+01 1.108050734828175088e+01
-5.158443386786910168e+00 4.806922937796165485e+01 1.195621962134985417e+01
-5.164581502611985897e+00 4.821126742879982174e+01 1.133197851139028067e+01
-5.065479887661743952e+00 4.814795458345075474e+01 1.189181434628705425e+01
-5.121636305623980867e+00 4.811740472531280943e+01 1.142901694276507740e+01
-5.075341761822086184e+00 4.810562481676306135e+01 1.107456226278242539e+01
-5.120235827117324945e+00 4.816412352226461024e+01 1.112902899371750998e+01
-5.206536672023918122e+00 4.805247697622212399e+01 1.157328089872032706e+01
-5.097318510614591069e+00 4.797869872914680656e+01 1.117448828488423196e+01
-5.178309936220177434e+00 4.808876404997496934e+01 1.162213946139410048e+01
-5.147724147787894999e+00 4.804185073383496984e+01 1.188243322417901027e+01
-5.204233522631205311e+00 4.809849225377866588e+01 1.188178294076472064e+01
-5.140883747836552331e+00 4.824211278457574537e+01 1.118078132598666841e+01
-5.047913499598642773e+00 4.807537598850542793e+01 1.175215862380328247e+01
-5.136658872528148123e+00 4.795470266655986080e+01 1.156570713603813161e+01
-5.066733701404218415e+00 4.805892009249485852e+01 1.150807025921155180e+01
-5.056788030930325029e+00 4.820240193580622901e+01 1.161115911506663956e+01
-5.052048205865853348e+00 4.817633083634324009e+01 1.183116473325079276e+01
-5.086912235001981308e+00 4.802265522306573331e+01 1.157850252808485259e+01
-5.137030201217873682e+00 4.818010287080199561e+01 1.160089524464652655e+01
-5.115071854089016767e+00 4.807902735059978738e+01 1.181712288633499952e+01
-5.055181644004147046e+00 4.808683466982621724e+01 1.180946115959363318e+01
-5.177804997688329358e+00 4.802491492387565586e+01 1.195757286840491673e+01
-5.107172326734477963e+00 4.816478296533178849e+01 1.183988493205517400e+01
-5.070207888668000429e+00 4.814448464025397101e+01 1.119665726808437789e+01
-5.101500362363140084e+00 4.801626014049286084e+01 1.138112807194586296e+01
-5.185180555902900501e+00 4.803231804893759715e+01 1.172968040445674198e+01
-5.125285726242583273e+00 4.805786540206135271e+01 1.123105545538866146e+01
-5.100010489376205491e+00 4.801838641083120507e+01 1.183921865312542110e+01
-5.028092980573211079e+00 4.800394777972829985e+01 1.104323169418089456e+01
-5.087880219555620087e+00 4.809655770793541762e+01 1.124478832803840334e+01
-5.067295851970843756e+00 4.806961781104863007e+01 1.156983166107625749e+01
-5.121064494285264779e+00 4.813496361715831284e+01 1.149054948748127458e+01
-5.207145838088334422e+00 4.801445072673110559e+01 1.156628397477557080e+01
-5.180614120264201539e+00 4.809939951560649973e+01 1.159957186863548806e+01
-5.220175994056005742e+00 4.811239829509961652e+01 1.198164135827753185e+01
-5.090602668736939229e+00 4.810227660777837855e+01 1.125053552471159080e+01
-5.119691988574724739e+00 4.805261476302635515e+01 1.149375560025434240e+01
-5.074090904736421770e+00 4.816253101503619405e+01 1.170141710733171081e+01
-5.142709551895860542e+00 4.809391104770602254e+01 1.144721451387983890e+01
-5.092724990807950824e+00 4.809298750427336699e+01 1.112119836684741614e+01
-5.192678881874232211e+00 4.807060548817121770e+01 1.142715058175549103e+01
-5.136861034765414225e+00 4.807077209772478454e+01 1.163995448145459832e+01
-5.044124584674346323e+00 4.816156670610432400e+01 1.142299619897763741e+01
-5.107258770464659925e+00 4.800055193565297174e+01 1.117734946396329931e+01
-5.151435521134914097e+00 4.802034379372597073e+01 1.131184368433693876e+01
-5.188479660488567013e+00 4.816669801225455672e+01 1.202854157732113727e+01
-5.103700612686769666e+00 4.807975661335210305e+01 1.158099162914179558e+01
-5.115493662972450117e+00 4.799550518011542977e+01 1.149070026339172301e+01
-5.090008741942805948e+00 4.807051092176646279e+01 1.116948131289612789e+01
-5.031679575670955806e+00 4.800140873629082705e+01 1.183720510506897483e+01
-5.119395371174889853e+00 4.811101871346644288e+01 1.120620733303453775e+01
-5.096338216378823560e+00 4.812983026492094751e+01 1.139743269684026927e+01
-5.028813593559915418e+00 4.805678588659938555e+01 1.161499923510213073e+01
-5.106363987566944651e+00 4.809348382636097341e+01 1.132876837431134298e+01
-5.119939271972233641e+00 4.812092073345910848e+01 1.106320499865803697e+01
-5.175065594942108937e+00 4.819078304404344237e+01 1.168923744553516819e+01
-5.153594772942939883e+00 4.809646385922472689e+01 1.186196643813155838e+01
-5.107923646922067462e+00 4.811680100889107337e+01 1.128446055449651375e+01
-5.087110191601912135e+00 4.803590999019622387e+01 1.158013440435433772e+01
-5.085425058696554146e+00 4.811763360770894593e+01 1.138373124252654023e+01
-5.080263988098382200e+00 4.811643157644284230e+01 1.119802083182104724e+01
-5.105518038737659303e+00 4.809812651214743795e+01 1.155687523874427747e+01
-5.147398380018373132e+00 4.808485998973684872e+01 1.162000495479261453e+01
-4.981017387272530961e+00 4.809937433564290643e+01 1.166735036538511316e+01
-5.102805128842236471e+00 4.811808387964864409e+01 1.194773760144248342e+01
-5.086119893259861691e+00 4.804811765223772824e+01 1.111173333727036194e+01
-5.018174854949731589e+00 4.801765572895396161e+01 1.133755273558870869e+01
-5.081894075808172317e+00 4.821509065479408918e+01 1.190765159326388911e+01
-5.124729865804986240e+00 4.813258498351095227e+01 1.152595240279212341e+01
-5.151026035021406102e+00 4.796655907001903074e+01 1.125203824037982159e+01
-5.093901160135684059e+00 4.801517411579604300e+01 1.140936737987345140e+01
-5.104683321998717105e+00 4.808790236051404321e+01 1.107703149747415061e+01
-5.162034083483037605e+00 4.818650211928483174e+01 1.145295630381774643e+01
-5.090957544940375890e+00 4.806924345947307131e+01 1.202964818907894795e+01
-5.042811874166060804e+00 4.797853098062330446e+01 1.127638181926469585e+01
-5.109333326173485901e+00 4.811164286446219052e+01 1.145128153475183197e+01
-5.069410588636092285e+00 4.799819435687304292e+01 1.176113211878385378e+01
-5.209602065091083034e+00 4.802859540031968777e+01 1.121709457476633176e+01
-5.033974107769981998e+00 4.817896974532345666e+01 1.121818903354541064e+01
-5.228343874084670162e+00 4.811968069838071926e+01 1.174015285951197995e+01
-5.048638965937452205e+00 4.797127488124553452e+01 1.159048592573464909e+01
-5.101167803594339745e+00 4.805303267934302625e+01 1.143905928522181270e+01
-5.134636362649127150e+00 4.814491270875313944e+01 1.148149402651438677e+01
-5.077254929126301164e+00 4.809431148966692149e+01 1.110043069226957257e+01
-5.100155077289789674e+00 4.809986378737821155e+01 1.119859534106421250e+01
-5.101131512770963106e+00 4.809985368378155357e+01 1.188133975525841812e+01
-5.137851946792874713e+00 4.811435791540372264e+01 1.202260582905998731e+01
-5.082066822920301874e+00 4.813132227773349570e+01 1.146419168005575528e+01
-5.040798904556705651e+00 4.814012208132130155e+01 1.159862461810008583e+01
-4.985371607669888405e+00 4.812262718329177602e+01 1.126341728678281839e+01
