-5.095400386651394165e+00 4.816953204118659215e+01 2.973100572904894534e+01
-5.400522308086848966e+00 4.822678999906835173e+01 1.734077882972117379e+01
-4.920510306089708408e+00 4.819315130295051830e+01 2.521704927833459564e+01
-5.044535333898920726e+00 4.828644235196133394e+01 2.120395341869315686e+01
-5.001842302037197818e+00 4.814883796836866736e+01 2.558787151666600934e+01
-5.139788743555833150e+00 4.832395068008142403e+01 1.600342393586673495e+01
-4.941506460509689447e+00 4.812103222066414787e+01 2.043147794466547751e+01
-5.263311373543723803e+00 4.817454199911076529e+01 2.540844355916514274e+01
-5.059418963039694184e+00 4.817943558751036903e+01 2.925207257530984961e+01
-5.068018604485273748e+00 4.820748237206903042e+01 3.030948738211880666e+01
-4.951830737374707248e+00 4.821250248925748849e+01 2.697169478490494754e+01
-4.968043608214296469e+00 4.822465894191449820e+01 2.641602157313649002e+01
-5.236492324978655688e+00 4.817788519082976251e+01 2.699219036604445776e+01
-5.039860139626701319e+00 4.826877529444266912e+01 2.386215011734022795e+01
-4.929913907336483270e+00 4.819979459481044159e+01 2.515110434873438905e+01
-5.221474198940502909e+00 4.810963023705647856e+01 1.993639843791958199e+01
-5.168282441154134155e+00 4.828615109931461546e+01 2.148106901320497286e+01
-5.045760532883745597e+00 4.813993807245508094e+01 2.596419618546337205e+01
-5.325165248374894134e+00 4.816969289150382849e+01 2.117608413458449235e+01
-4.952261114242795692e+00 4.832993614574861851e+01 1.319638075170287550e+01
-5.105948684962627659e+00 4.819841462507184815e+01 3.029970633351581100e+01
-5.190912193084566084e+00 4.823603701521869169e+01 2.752784849524656252e+01
-5.090940945099414527e+00 4.817991359158227027e+01 3.020990316303639744e+01
-5.466769451330763196e+00 4.820672714347441712e+01 1.332189329610705286e+01
-4.862858308942766605e+00 4.822900890054462764e+01 2.036110526243929186e+01
-5.047204920876197320e+00 4.818315066895462451e+01 2.933870558242293924e+01
-5.404293415214246998e+00 4.827946259532894402e+01 1.330415696611853349e+01
-5.347631215738992694e+00 4.824759743080824848e+01 1.853042888103123076e+01
-5.040029878564534549e+00 4.822332296303473953e+01 2.911319030608807168e+01
-5.177753251136572032e+00 4.829635575776342904e+01 1.920071944403549935e+01
-5.091677827723250616e+00 4.832040315838778355e+01 1.652984495642918716e+01
-5.296010315741972008e+00 4.812850279113624907e+01 1.883467468881549323e+01
-5.144074744522155740e+00 4.822233636358290454e+01 2.985218033863392151e+01
-5.092708850613369087e+00 4.820345164885442557e+01 3.041321167859093677e+01
-5.082186673087602635e+00 4.832392426712227262e+01 1.537559020809912624e+01
-5.003270710244877684e+00 4.831745663240864275e+01 1.546872173160653219e+01
-5.265776037127807285e+00 4.817566823736581938e+01 2.468793250878131573e+01
-5.160059586686261746e+00 4.833296329984693784e+01 1.385152974843786922e+01
-5.051760873775882565e+00 4.819856538173505811e+01 2.991143927008623393e+01
-5.013603401317554109e+00 4.820630708207888659e+01 2.948156774393942925e+01
-4.882350416279570560e+00 4.811844474427509510e+01 1.675120704794650806e+01
-4.981294395057022761e+00 4.816725452422561915e+01 2.699710340820434951e+01
-4.995970377368259996e+00 4.821404288848645336e+01 2.809827177115669272e+01
-5.077806752959080683e+00 4.820263315963445194e+01 3.056553251605276955e+01
-4.751617534115824881e+00 4.819779857668529388e+01 1.499560793878954890e+01
-5.185285973056194209e+00 4.818656212007910966e+01 2.894077643080882467e+01
-5.185617293512739145e+00 4.814163636418231107e+01 2.486004560224628079e+01
-4.871672157030224604e+00 4.823737923974260156e+01 2.095654346895450360e+01
-5.082883805467468541e+00 4.822908510247796698e+01 2.936592810320942704e+01
-4.848006776614190549e+00 4.820146141290688746e+01 2.086205399711381858e+01
-5.334368771701646139e+00 4.817288544790982030e+01 2.141824989443584215e+01
-5.193792930356224247e+00 4.819411944375872281e+01 2.859394574777342868e+01
-5.171653296805830635e+00 4.818726853801177157e+01 2.911425419285834337e+01
-4.727704734117121887e+00 4.819961932550300787e+01 1.318618280401380893e+01
-4.954643847273669799e+00 4.806935641020674410e+01 1.317475410463789842e+01
-5.214601498322630313e+00 4.823632334019657009e+01 2.673434510844823819e+01
-5.059305512281521366e+00 4.820687353806340525e+01 3.029077306950406623e+01
-4.938795143778476060e+00 4.826302027312483744e+01 2.179823266391812808e+01
-4.761356909253006364e+00 4.814441005055509493e+01 1.353738139208205027e+01
-5.269668195833320468e+00 4.807339751563424102e+01 1.240200055679481750e+01
-5.124561991852082166e+00 4.821097699170598361e+01 3.053156438520230154e+01
-4.829183100684146801e+00 4.829475770083862329e+01 1.297648082422730731e+01
-4.902359400461614669e+00 4.815191438347649466e+01 2.172250383956025033e+01
-5.095300264670827417e+00 4.820182949553777974e+01 3.068296308559235186e+01
-5.032751161776777060e+00 4.812399401375492403e+01 2.285913410911753019e+01
-4.979891011943811563e+00 4.809296321395557783e+01 1.728266426873389960e+01
-5.133197433506622609e+00 4.820064560149545230e+01 3.047968662450831090e+01
-5.244773495742448333e+00 4.820755145711211753e+01 2.683105044405387218e+01
-5.261191244933838718e+00 4.807548008914567106e+01 1.333714669724700919e+01
-5.054077710143884516e+00 4.819759645050157815e+01 3.042100680679844515e+01
-5.155644493912512338e+00 4.826506192956358632e+01 2.522913296182770893e+01
-5.052082136402865409e+00 4.819510531253124697e+01 2.969895437904058255e+01
-5.074814585606402417e+00 4.818619291089397194e+01 3.015676906698965354e+01
-4.859937385829194767e+00 4.818149831864837296e+01 2.141413996732929448e+01
-5.167206168651776288e+00 4.817234058218063097e+01 2.825990606487939161e+01
-5.071447817709917594e+00 4.824736117157068804e+01 2.730320704764272222e+01
-5.098986390683330150e+00 4.820315459837274119e+01 3.035932522962789548e+01
-5.099990211979172017e+00 4.820390872983659847e+01 3.005705819941417190e+01
-5.102268053269781944e+00 4.820874249211186680e+01 3.087638792162889345e+01
-5.122604510112538811e+00 4.829372350352635124e+01 2.100649507486718903e+01
-5.211500969117889071e+00 4.818602112555200989e+01 2.837884155674619890e+01
-5.106534454388921063e+00 4.821167946170567831e+01 3.051380155247866810e+01
-4.930139484752156243e+00 4.808287359676031514e+01 1.400393802780401842e+01
-5.170575808568867338e+00 4.828081874933497630e+01 2.242454686734989622e+01
-5.026214907705354840e+00 4.821963907157048368e+01 2.941095055226309185e+01
-5.000788311838895162e+00 4.819871599101208659e+01 2.888810461349788383e+01
-4.802995287115132683e+00 4.823738491684511587e+01 1.722692138438755194e+01
-5.116172938608611886e+00 4.821727035649080761e+01 2.974212654300236025e+01
-4.773004488935074896e+00 4.812475025646403992e+01 1.200958235780253247e+01
-5.302489994000573859e+00 4.821233147392835861e+01 2.327620133100660382e+01
-4.939476196172262412e+00 4.813792689259368984e+01 2.177993967905551642e+01
-5.355302889151167811e+00 4.811279469799016795e+01 1.463826081904420562e+01
-4.877551262722643166e+00 4.814164703546212110e+01 1.952404530291880747e+01
-5.375172399333147943e+00 4.809323588851657405e+01 1.133404919169638703e+01
-4.811096301848215795e+00 4.826407927967664335e+01 1.567950074560196505e+01
-4.856729740403261886e+00 4.812475591289917531e+01 1.688596233073770136e+01
-5.054213881647400264e+00 4.818371082289458229e+01 3.002169861846277854e+01
-5.123707747484262498e+00 4.827404744716150731e+01 2.345500077914042336e+01
-5.192780252604175750e+00 4.828240086689097410e+01 2.132734949550010128e+01
-5.080504748616042399e+00 4.809066095946053565e+01 1.793184710019435357e+01
-4.745635049616569567e+00 4.824464942328440031e+01 1.308743570350230101e+01
-4.849740581447298027e+00 4.809158605068770953e+01 1.226211723702004441e+01
-5.364704909458957616e+00 4.810637821478280785e+01 1.332631090049603628e+01
-4.940792106538865802e+00 4.831700216424947314e+01 1.488362995670197364e+01
-5.276854500471773513e+00 4.826466534798716879e+01 2.102585586180005706e+01
-5.444637666974186274e+00 4.817447943116673059e+01 1.433117755384112613e+01
-5.076829245219700582e+00 4.823359535060806280e+01 2.906411384982509816e+01
-5.183403577872777390e+00 4.814380990410812444e+01 2.545892317823228623e+01
-5.095879356895394174e+00 4.819289316457883388e+01 3.074269825409335155e+01
-5.213590479658532395e+00 4.822689167507575547e+01 2.778180917738398392e+01
-5.385824342987034719e+00 4.815909867178628900e+01 1.714644646449438881e+01
-4.889594239488102900e+00 4.819821319046324248e+01 2.308738543431059398e+01
-5.331826497357115890e+00 4.816855106118359942e+01 2.080293552708290150e+01
-5.383464847535313069e+00 4.812327794157682348e+01 1.472092419343979763e+01
-5.128096961217975647e+00 4.820297108538382247e+01 2.998049387327681359e+01
-5.210972920124198104e+00 4.832980030622423584e+01 1.374567054147949996e+01
-5.046357877525130320e+00 4.816754363197062361e+01 2.866146731588653296e+01
-5.085312609751592383e+00 4.814009437621423615e+01 2.570686007010785801e+01
-5.165311052522866930e+00 4.833900211335406283e+01 1.283954244627492614e+01
-5.070179434981167965e+00 4.825385469673504701e+01 2.646902597260169898e+01
-4.808554768416555270e+00 4.824059631154059957e+01 1.729764362004515377e+01
-5.138041903206981509e+00 4.817357568631113907e+01 2.973846363638054413e+01
-5.344552250560661300e+00 4.827404904946008912e+01 1.642633791240640306e+01
-5.221440774025040810e+00 4.823782143798592159e+01 2.572250895669218451e+01
-5.231103686127935859e+00 4.809821431209743281e+01 1.703110723426134143e+01
-4.824019153718180242e+00 4.823418766090034637e+01 1.781494007107357547e+01
-5.190507441396379207e+00 4.821008028950241453e+01 2.863389917926669526e+01
-5.003014722011349669e+00 4.832815036793168417e+01 1.400342332393169364e+01
-4.971036009577803227e+00 4.817254919303346128e+01 2.677943260271107206e+01
-4.882629982343582142e+00 4.831237368458778292e+01 1.327403697220792012e+01
-5.337562722903426149e+00 4.815902003434826639e+01 1.970008373488241915e+01
-5.081077523119117423e+00 4.824886118139365010e+01 2.748657643493492841e+01
-5.426618040450861713e+00 4.819796321332833600e+01 1.563917132895811335e+01
-5.282886274638604718e+00 4.826408603090783345e+01 2.044014855595307267e+01
-5.135192939286195468e+00 4.818664945195894944e+01 3.006360169737155985e+01
-5.205859252908910939e+00 4.820972570044907002e+01 2.863455439221025500e+01
-4.854595226725537671e+00 4.809004506518609645e+01 1.261133112827295477e+01
-5.089333862394691543e+00 4.815187367537572527e+01 2.747114025092323786e+01
-5.085607743268382386e+00 4.821649052317280137e+01 3.011192793517248845e+01
-5.058649725498311156e+00 4.821329037315189225e+01 2.977536488297887729e+01
-4.889640026885643920e+00 4.823354194679516382e+01 2.255991866210208840e+01
-5.319928034592634525e+00 4.820566857328496013e+01 2.272677548340366371e+01
-5.329569422383681143e+00 4.823645086470409638e+01 2.119627655254874909e+01
-5.075454856940929460e+00 4.823956343746051800e+01 2.799110529247087342e+01
-5.190222140830093700e+00 4.821443869196499321e+01 2.923475958953597242e+01
-5.094084735625750149e+00 4.819779426468490158e+01 3.091294725336861404e+01
-5.107941217732083317e+00 4.806845296893313702e+01 1.403647047596515840e+01
-5.127336577166283327e+00 4.831429174884564048e+01 1.751164226168274141e+01
-5.110250498484867343e+00 4.821762370307962442e+01 3.019682736000564560e+01
-5.177886196452949896e+00 4.820466686275261736e+01 2.905696523766416206e+01
-5.250807568188397667e+00 4.807594259179948182e+01 1.349535857502222314e+01
-5.406379282833555955e+00 4.814136229576078563e+01 1.453058074981751346e+01
-5.220460195433632933e+00 4.822564418200986580e+01 2.680483763396765795e+01
-5.030018247157109990e+00 4.815998539032022308e+01 2.713565297593540038e+01
-5.225717721636049085e+00 4.832887811229967667e+01 1.335792653801754781e+01
-4.938483900905735524e+00 4.819570127762241896e+01 2.604347054065161515e+01
-5.093019926488225657e+00 4.820162685315309403e+01 2.999969034065128781e+01
-5.256032367122068116e+00 4.827373333843593883e+01 2.062408902758707185e+01
-5.388479869326601168e+00 4.813406314322947566e+01 1.493585201350817471e+01
-5.489280259599625289e+00 4.822059995940470856e+01 1.163861938765655957e+01
-5.057132466115829672e+00 4.817968377722502282e+01 2.995787770795456950e+01
-5.420001244361940529e+00 4.815308476238873681e+01 1.468486644080327608e+01
-5.213938964167541990e+00 4.832021974203043868e+01 1.459709913666979730e+01
-5.469004838654421441e+00 4.822287291716316560e+01 1.310126195499615065e+01
-4.989250645881529778e+00 4.819535595609798406e+01 2.814278895722772944e+01
-5.270760708264773164e+00 4.809633289877815798e+01 1.616376492899657791e+01
-5.146500451620240391e+00 4.821269389864522026e+01 2.948133503959628854e+01
-5.113991273960975192e+00 4.818997471048536596e+01 3.052060748769917709e+01
-5.047118676856231723e+00 4.830175050350845112e+01 1.933390272850814284e+01
-4.993808733373473530e+00 4.813216880045223434e+01 2.299766537392334698e+01
-5.084013107122302699e+00 4.828438921744215406e+01 2.197064683612421732e+01
-4.953933457746128255e+00 4.812408991809790848e+01 2.049565484116190106e+01
-4.973023239826592778e+00 4.811056052534353000e+01 1.952816716220447191e+01
-5.071266986791670206e+00 4.809875196903247030e+01 1.892993899231467125e+01
-5.098371275293530402e+00 4.808179542196236156e+01 1.621927009199303171e+01
-4.928399117743419211e+00 4.822781912993609410e+01 2.477975395669076875e+01
-5.272734132407964402e+00 4.823233114634828667e+01 2.435903447548617606e+01
-5.245638746826432275e+00 4.806499074332913324e+01 1.198639461898749303e+01
-5.107920825731680381e+00 4.817375332205050853e+01 2.950481267301604760e+01
-5.056462735533030717e+00 4.827184235567838044e+01 2.399934539978615078e+01
-5.032995155731559755e+00 4.812503727777551887e+01 2.365553774852268987e+01
-5.083671958899760313e+00 4.819286601120558089e+01 3.014678272389915392e+01
-5.043925050727161796e+00 4.820198053549017203e+01 2.990842866445169079e+01
-5.219674057500995445e+00 4.827816718104770644e+01 2.143739193637841822e+01
-5.060711852495364482e+00 4.818398845300610844e+01 3.025841577919597114e+01
-5.215338854396649459e+00 4.815386770565248042e+01 2.518517676196472266e+01
-5.029919639921462071e+00 4.816240058802576840e+01 2.791990630893831948e+01
-5.399229041309246746e+00 4.823933493221894508e+01 1.664894496411433877e+01
-4.989408614410349330e+00 4.816855689694143194e+01 2.665334834688265531e+01
-5.299484897491433699e+00 4.809447833277486239e+01 1.445875555655073796e+01
-5.105654320547987624e+00 4.831622261529729911e+01 1.651281581014070809e+01
-5.007424572159646203e+00 4.829019513699832089e+01 2.036590370475100187e+01
-5.103525936098673554e+00 4.820213056564043796e+01 3.066785732452537871e+01
-4.841480846511762692e+00 4.822100611212484012e+01 2.037274700521492932e+01
-5.334053163447456392e+00 4.817904755426737040e+01 2.148891904311336987e+01
-5.066076280287426847e+00 4.818750874905413895e+01 3.010508069922823893e+01
-5.234583035053161915e+00 4.821461349440652810e+01 2.660232350547796187e+01
-5.213753260221594132e+00 4.829094856521562917e+01 1.921778017433798524e+01
-5.271143976447894453e+00 4.831837153104524418e+01 1.399254373059750378e+01
-5.142281597072207333e+00 4.829382149631985754e+01 2.060893023725677864e+01
-5.218040070078364678e+00 4.811310815698485754e+01 2.006621940686028438e+01
-4.945488063525127487e+00 4.819332711433889926e+01 2.630713709054815652e+01
-5.405424848178440378e+00 4.818527741243855900e+01 1.729432569875721626e+01
-5.151926171465643911e+00 4.808478564757302820e+01 1.647940685334608801e+01
-5.208778428778689573e+00 4.821811512022848234e+01 2.815266495383268008e+01
-5.051054655145928329e+00 4.831409804908110317e+01 1.687987585056051998e+01
-5.237787015849863614e+00 4.821836088461166270e+01 2.722328032800728792e+01
-5.138767448122692372e+00 4.821901312277357476e+01 2.993060021142152749e+01
-4.947284582254020791e+00 4.811682563515294930e+01 1.934540208035244291e+01
-5.121309331756717320e+00 4.818232756816981777e+01 2.977566930663221001e+01
-4.972720570581185662e+00 4.822489871650279269e+01 2.673442481715912322e+01
-4.960018701371559757e+00 4.809217221601896597e+01 1.643223922814822657e+01
-5.088627160732208665e+00 4.833500294872918346e+01 1.402802706971166735e+01
-5.334713365007484498e+00 4.823449243645556095e+01 2.031908999736706534e+01
-5.291120781039004406e+00 4.806908776453229848e+01 1.148068122785103462e+01
-4.885114047264772275e+00 4.820868459169518871e+01 2.252639832033856493e+01
-4.778145734930316912e+00 4.820202529455026053e+01 1.646551871159309144e+01
-5.077250278952769591e+00 4.816054017839077517e+01 2.813251744260336196e+01
-5.490152732869714391e+00 4.823086801766971377e+01 1.176908661958243130e+01
-5.050138447810896380e+00 4.826714717981958103e+01 2.436452485183076178e+01
-4.903838877567370247e+00 4.822275949976844345e+01 2.388845095145867958e+01
-5.094127141686989546e+00 4.813929001711634470e+01 2.566861393923960932e+01
-5.003713466941496435e+00 4.818108695131913066e+01 2.801112592328199824e+01
-5.130264211616788472e+00 4.821623327882576149e+01 3.036429332068729892e+01
-5.153951201417624972e+00 4.807166518024264690e+01 1.500634369321967654e+01
-5.092013270743991349e+00 4.820384695211114945e+01 3.064745522839077552e+01
-5.360838148942978165e+00 4.811607310055941156e+01 1.495859033359120360e+01
-5.442961110625712529e+00 4.815522940576241240e+01 1.394617977509366824e+01
-5.160905320648788042e+00 4.815569660927758378e+01 2.737408631560911587e+01
-5.066750875500647844e+00 4.816575827608976113e+01 2.919833759912217275e+01
-4.963418907508200029e+00 4.819243917431469981e+01 2.702466337464078094e+01
-4.802122195328967891e+00 4.821993019251360835e+01 1.732462059005898425e+01
-4.874665599162834262e+00 4.817099436173776894e+01 2.151860480096505057e+01
-5.098890575982187201e+00 4.820008695237887508e+01 3.077218632655663200e+01
-5.179703951824276231e+00 4.826034079947034172e+01 2.515830102580887129e+01
-4.804935389673667068e+00 4.811165325044067487e+01 1.246058046908731676e+01
-5.371009594694990952e+00 4.810877779156252387e+01 1.408758818746149721e+01
-5.374297611496621663e+00 4.823806170167677720e+01 1.774428160446411695e+01
-5.261843673222705853e+00 4.829771967787579001e+01 1.748567912553503234e+01
-5.299837134864212373e+00 4.822881346225134536e+01 2.326249341850538244e+01
-4.948785720698301027e+00 4.831211811765543729e+01 1.561867410500448905e+01
-5.191793808644647790e+00 4.827239121392385357e+01 2.264188391887697094e+01
-5.068313805603398947e+00 4.819041766817646533e+01 3.012055219749536406e+01
-5.011619801342453329e+00 4.819536688341766961e+01 2.937648936682111511e+01
-5.261840234583316622e+00 4.813928932012698425e+01 2.244905747481057645e+01
-5.217136145960052040e+00 4.818579501265384835e+01 2.814531096162298951e+01
-5.477877585788201387e+00 4.824067582277355370e+01 1.167035897160628366e+01
-5.184263598162548448e+00 4.831966467736970117e+01 1.615617880452286315e+01
-5.345347019979510783e+00 4.831260009281795931e+01 1.194491215077522384e+01
-5.096763789079118645e+00 4.820482982212656253e+01 3.049500980363268354e+01
-5.035861878380788248e+00 4.814753879825228466e+01 2.658540133745736256e+01
-4.843707973733294203e+00 4.830831024257899031e+01 1.279975465655655853e+01
-4.894767211472128565e+00 4.813115131360362398e+01 1.879954777535079913e+01
-5.164935522909517296e+00 4.820068015242819826e+01 2.924066903929149319e+01
-4.915953375620891741e+00 4.817321093636682861e+01 2.375743176545098478e+01
-5.226558583071165387e+00 4.825530917022572197e+01 2.440197641311605992e+01
-4.802023837348767366e+00 4.816570361673803546e+01 1.700171663901584296e+01
-5.315934580209352944e+00 4.827191274089631179e+01 1.869602406086217528e+01
-4.898098068998510080e+00 4.828429297851673851e+01 1.794754441515559051e+01
-4.895795821357222799e+00 4.814456481469602522e+01 2.064387125591919059e+01
-5.378396266948166193e+00 4.824876694270417943e+01 1.727124431227325019e+01
-5.175984268022757462e+00 4.815358661754761016e+01 2.721998940742447104e+01
-4.961351347236080400e+00 4.820767217164582519e+01 2.665119638532990365e+01
-4.872674305039732090e+00 4.812638828710713312e+01 1.736021316142274529e+01
-4.878187962588337534e+00 4.822290086438114542e+01 2.184820601127824702e+01
-5.128105511126013205e+00 4.810244224904948851e+01 1.990460559725922352e+01
-4.710979845235533148e+00 4.821191224998319313e+01 1.196689182829824460e+01
-5.098372818657449734e+00 4.820101556364411977e+01 3.066547202758847490e+01
-4.967499568920030306e+00 4.823266315852212927e+01 2.636980617169077945e+01
-5.243823405884895372e+00 4.815199684369550681e+01 2.450452200423457683e+01
-5.102152814778304624e+00 4.819731566830437686e+01 3.060151129630425615e+01
-5.266751719915955476e+00 4.819795768640504008e+01 2.576860594222484124e+01
-5.030234772354174488e+00 4.805492697100665112e+01 1.234710568497023964e+01
-5.092133546122981969e+00 4.815157462562059720e+01 2.795403708925650221e+01
-4.925785407142399208e+00 4.811427520927332324e+01 1.881143194804846530e+01
-5.046764736212013602e+00 4.809463731467875647e+01 1.891646916551940905e+01
-4.962051258316978242e+00 4.828593590308999239e+01 1.961425585023717488e+01
-5.149408696096771543e+00 4.808195939120800233e+01 1.681168146239304662e+01
-4.961353539807587865e+00 4.814309048550506986e+01 2.353025174320820767e+01
-5.126129204885330637e+00 4.822226373205541705e+01 2.938354771655953002e+01
-4.983771198086738963e+00 4.813264245483095038e+01 2.285515303626640460e+01
-5.131776129428398114e+00 4.829722179768405255e+01 1.968317510491458933e+01
-5.027383710183046972e+00 4.827560100413095512e+01 2.252389628721676829e+01
-5.032755776068387199e+00 4.809918108104667311e+01 1.937983723841116301e+01
-5.241438820551115541e+00 4.820513551663054841e+01 2.740680998761292742e+01
-5.211103226292772561e+00 4.820323482437280660e+01 2.831414765606113093e+01
-5.115908651151852560e+00 4.808209207255828943e+01 1.632523462117598356e+01
-5.175870014801553509e+00 4.818324557740901781e+01 2.898300271168248088e+01
-4.936826094884110283e+00 4.833613540335742442e+01 1.212305280639300165e+01
-5.223405836628969290e+00 4.810965142509376591e+01 1.921517711227142655e+01
-5.010123690905964544e+00 4.819390286017104330e+01 2.928089354371987696e+01
-4.762216864971131614e+00 4.817090540890077222e+01 1.490448100180000779e+01
-5.158157864470487297e+00 4.820651384148155927e+01 2.962722304213832203e+01
-4.965398850282269017e+00 4.829763035108372549e+01 1.754063854798281241e+01
-4.747421756551894134e+00 4.826499028525987001e+01 1.153984076400947067e+01
-5.003012042573107721e+00 4.818340753824720935e+01 2.872777624843497080e+01
-4.881614389338130522e+00 4.810407982710233910e+01 1.549973284686090302e+01
-5.196755113049247754e+00 4.811972575288380227e+01 2.132121003497181277e+01
-4.892546610564425968e+00 4.811242226077077788e+01 1.633545562560902198e+01
-5.063712757919486940e+00 4.817986059880099958e+01 2.992475128968207443e+01
-4.942959005749117729e+00 4.824590624869660616e+01 2.373319742922562980e+01
-4.996239796027398761e+00 4.825652820668610588e+01 2.459136953877330001e+01
-5.390794007311958680e+00 4.814657504866361393e+01 1.593330403868905876e+01
-5.176353433252884884e+00 4.833419831615216111e+01 1.392496226431914508e+01
-4.971493243485701541e+00 4.819675207442013232e+01 2.763469550087818050e+01
-5.076370985089799781e+00 4.818683968693294162e+01 3.019453372987052830e+01
-5.042877251698944185e+00 4.813416443293058933e+01 2.468042423594818047e+01
-5.001218085138223302e+00 4.826545229260311487e+01 2.353150560176786854e+01
-4.964828122980272873e+00 4.812257046751810918e+01 2.055363135274662412e+01
-5.105171083383644337e+00 4.819835876209190673e+01 3.057557782265298130e+01
-4.986511391767908030e+00 4.819132278991476426e+01 2.852627403205979562e+01
-4.812896043432333570e+00 4.826864154655140027e+01 1.529834111868347435e+01
-5.194779318187885409e+00 4.825116961578422092e+01 2.555118246046096075e+01
-5.281366339398202214e+00 4.829228915672918987e+01 1.698299167530709397e+01
-5.002382129130833910e+00 4.824827209048823562e+01 2.612226912371061971e+01
-4.972129677979423512e+00 4.820255580577634191e+01 2.777934398915308734e+01
-4.977081530221714623e+00 4.818132387376615355e+01 2.704324839194270069e+01
-5.101261747240146249e+00 4.820005828514903357e+01 3.043867543482637927e+01
-5.251836067668777197e+00 4.809668819074546064e+01 1.621513330646163809e+01
-5.093769467377430082e+00 4.820815750708890590e+01 3.020613029940255245e+01
-4.939698584012854887e+00 4.829180484281704366e+01 1.779323919152127331e+01
-5.327621088518461612e+00 4.830785727629061910e+01 1.327439727960965499e+01
-5.065345249971569430e+00 4.820394904127217472e+01 3.022613733728314145e+01
-4.910548582807188644e+00 4.821853244849242515e+01 2.432915089441669210e+01
-4.850338471639357607e+00 4.825010718276037380e+01 1.819546975061337335e+01
-5.431199194582795542e+00 4.817094436701798799e+01 1.495123953821504514e+01
-5.246117079465002497e+00 4.828091631506764259e+01 1.982719292518897092e+01
-5.155131783113563237e+00 4.827013653268396354e+01 2.422000927084212307e+01
-5.411800723937925994e+00 4.815228327566112654e+01 1.513085847663868044e+01
-4.954531443261505075e+00 4.832816425561761520e+01 1.287153239198108245e+01
-5.133575109091403910e+00 4.833923928146366933e+01 1.312734660381677720e+01
-5.098457375896980004e+00 4.818977629355462966e+01 3.064107664643074358e+01
-5.077035193989805073e+00 4.821963515013827362e+01 2.986085751915149444e+01
-5.295935040146276584e+00 4.816686110258849851e+01 2.251528826363478686e+01
-5.067520928847435435e+00 4.807816135479762920e+01 1.602937117907860554e+01
-5.328672649410727935e+00 4.812053793795319478e+01 1.697316529422503351e+01
-5.037958743640547965e+00 4.821985592118618769e+01 2.944030801370181294e+01
-5.138771298698026513e+00 4.827898891261031622e+01 2.326696712170002002e+01
-4.966707646983761215e+00 4.825186438607017436e+01 2.442883129476077642e+01
-5.297933033207137932e+00 4.815325580896061552e+01 2.169539667388343318e+01
-5.106161535674231366e+00 4.820872341575569209e+01 3.048382944037911813e+01
-5.209904899220435759e+00 4.828161907513843687e+01 2.145582919103098973e+01
-4.776605542495724777e+00 4.815018054667497438e+01 1.423691523832315475e+01
-4.881603018294462082e+00 4.813684807254553988e+01 1.947904122271232197e+01
-5.136454126419953248e+00 4.823999334102570913e+01 2.794928657996263155e+01
-4.859226512713223478e+00 4.826456246953775064e+01 1.761701984325132386e+01
-5.122878599762998419e+00 4.816841347374116111e+01 2.910617117442166801e+01
-5.078947602995750543e+00 4.819929835926200923e+01 3.035894391382475277e+01
-4.783993023337651529e+00 4.819510661555838738e+01 1.661028783977699419e+01
-5.250541660435322555e+00 4.816943416116851751e+01 2.585224406262423358e+01
-5.238153876782425833e+00 4.814243322384396606e+01 2.382896382071260888e+01
-5.110816755548991175e+00 4.820154561821326666e+01 3.053443128628033065e+01
-5.168405686593247061e+00 4.829636787718386870e+01 1.980011850960179842e+01
-5.204559986740049382e+00 4.813305861713131151e+01 2.352858481764028298e+01
-5.216526415417030549e+00 4.821228303345574062e+01 2.760178645828904109e+01
-5.243772083436375020e+00 4.824432206957644809e+01 2.430848886279557064e+01
-4.952158893856887900e+00 4.825888015334736281e+01 2.294510804183843078e+01
-4.768172749924528553e+00 4.825973586613139332e+01 1.370623979526660108e+01
-5.054496384918554241e+00 4.820560112732199087e+01 3.000127834341061117e+01
-5.176354618453622436e+00 4.823341007421016258e+01 2.759846962341699594e+01
-5.459112888762136073e+00 4.817340457396167608e+01 1.354309487669686263e+01
-5.080168626110753927e+00 4.827293386738217862e+01 2.403157883717088694e+01
-5.081112582239972753e+00 4.820659256010724647e+01 2.989163987918425391e+01
-4.868340018433176652e+00 4.815970389052933598e+01 2.017577522037608873e+01
-4.842043821365805911e+00 4.818396009651479517e+01 2.021818217368763726e+01
-5.262693418759950781e+00 4.816540139686794220e+01 2.471239976209502132e+01
-4.974708200495147281e+00 4.827013585770025372e+01 2.249079731831198714e+01
-5.131665982944371152e+00 4.820627136009002811e+01 3.061270794829662378e+01
-5.361208287543344220e+00 4.814131094259978738e+01 1.730988980791600440e+01
-4.967232344396364851e+00 4.818470545935670657e+01 2.729728045874761477e+01
-5.272757800504552783e+00 4.823053450499089223e+01 2.400903662707821695e+01
-5.425390806970575852e+00 4.814016434404157962e+01 1.332852984122518869e+01
-5.116345997823754210e+00 4.815898695150251996e+01 2.787298473595558690e+01
-4.895157223688437753e+00 4.817574380538000867e+01 2.271117320709417697e+01
-5.180502443967763604e+00 4.828998404049037418e+01 2.023491691606638199e+01
-5.005057584382499591e+00 4.823765337932582753e+01 2.706719152055575961e+01
-5.104006779199527166e+00 4.817893320365609355e+01 2.998661439630067349e+01
-5.022421065554741659e+00 4.810866893035813519e+01 2.055991226616152190e+01
-5.088445852054194418e+00 4.822178052345299903e+01 3.006774944019345241e+01
-4.922042256564028939e+00 4.822741402200770722e+01 2.425468546747960730e+01
-5.134814121366499506e+00 4.817043417691277085e+01 2.949001126049254395e+01
-5.074520958286548478e+00 4.832564906930423376e+01 1.521779146146872108e+01
-4.898837242366045786e+00 4.828043608092149697e+01 1.767766863438885494e+01
-5.106450299495436163e+00 4.830004849455371385e+01 1.926990841129845577e+01
-5.012029892912783779e+00 4.820121975770196343e+01 2.912679735926946734e+01
-5.274060879569050897e+00 4.821407498230657751e+01 2.484051566984085113e+01
-4.737119500971385122e+00 4.815471135421264393e+01 1.247358221431171188e+01
-5.070840857372161281e+00 4.822716719330984603e+01 2.940898437265571275e+01
-4.887314701545849793e+00 4.812271685910732089e+01 1.786859783563826198e+01
-4.995506024628522113e+00 4.811678920242640345e+01 2.090822867955107256e+01
-5.088734125491712668e+00 4.822042484634165049e+01 2.985851553388557633e+01
-4.959188999333009384e+00 4.819095227665193448e+01 2.686472728103438001e+01
-5.000221194435710004e+00 4.827607716433818297e+01 2.239480098582936307e+01
-4.977554452960011311e+00 4.817602226997078674e+01 2.754512877898479317e+01
-4.951489463470153396e+00 4.815327762392452371e+01 2.421832135004209619e+01
-5.013694783788215759e+00 4.830355968012276691e+01 1.807617352427485002e+01
-4.941237250403559322e+00 4.828653663806414897e+01 1.868423955858860097e+01
-5.033767545051760273e+00 4.817723907010287121e+01 2.915306791619838833e+01
-5.191753302407654758e+00 4.823991073657052908e+01 2.695125616468421725e+01
-5.129166222307855350e+00 4.825047859557270158e+01 2.695084694493418809e+01
-4.969956098415683421e+00 4.822070484081366715e+01 2.736964907807717751e+01
-5.270418984991543709e+00 4.827338351342874034e+01 2.001825775581015776e+01
-5.164796142809957580e+00 4.826225426772697347e+01 2.518364828723050053e+01
-5.303040208569327341e+00 4.825089238473041320e+01 2.153358649344672671e+01
-5.124189408305694471e+00 4.820362015664897370e+01 2.994711982385168625e+01
-4.838323391244674809e+00 4.822841804897463192e+01 1.974633379838114777e+01
-5.023568861624064574e+00 4.828271285149116210e+01 2.135601749881888622e+01
-5.405224359957791158e+00 4.815283903304632673e+01 1.587623425263750399e+01
-5.392441493404958486e+00 4.822620087882832252e+01 1.761978773448349500e+01
-4.954826528739254776e+00 4.810563863915935201e+01 1.868493789048863718e+01
-5.051814341756269755e+00 4.828604641260516672e+01 2.149879955367535089e+01
-5.165864294092774145e+00 4.812089808725255580e+01 2.237063118167127485e+01
-5.126209475277876848e+00 4.805425459778280128e+01 1.222258035402419196e+01
-5.121295973960711123e+00 4.818818110185529235e+01 2.998614773402743694e+01
-5.415398350730217913e+00 4.814729830927559107e+01 1.429623271428894604e+01
-5.100067059036837769e+00 4.821515899837100960e+01 3.035691852161181714e+01
-5.429931402561872567e+00 4.816457909720144670e+01 1.517562274155327273e+01
-5.275598452792334747e+00 4.816157998029348875e+01 2.369936143823650454e+01
-5.047563799496106896e+00 4.821821555448841679e+01 2.905825590151899362e+01
-4.719716817237247675e+00 4.819799580481753765e+01 1.313821831495679326e+01
-4.840684229457486332e+00 4.822593045504697784e+01 1.921057654696182126e+01
-5.493234247960530503e+00 4.821035803117853646e+01 1.166537072720695889e+01
-5.210425632297531529e+00 4.827490856834916855e+01 2.255937922411240493e+01
-5.102003191427690432e+00 4.820160793986826064e+01 3.097567253042112156e+01
-5.201186010459360354e+00 4.821813802340585653e+01 2.788363417456716320e+01
-5.139343713507638967e+00 4.817542518890710568e+01 2.982321910805559639e+01
-5.010887527004324937e+00 4.819540027055915488e+01 2.878277061772376300e+01
-5.347862372657567143e+00 4.820033951461348920e+01 2.082252707759257149e+01
-5.125426640556780988e+00 4.820947884498006886e+01 2.993629765421302835e+01
-5.119207440128154651e+00 4.821452532987587603e+01 3.029334823546702538e+01
-5.027295141478537843e+00 4.822440374793129081e+01 2.858849694794540852e+01
-5.101891263215569516e+00 4.814446605349328934e+01 2.672273380321633596e+01
-4.961419333120311137e+00 4.812488437796116614e+01 2.078618394075152054e+01
-5.100018217187400893e+00 4.820516053089923503e+01 3.030395658044768581e+01
-5.091385990858341870e+00 4.814859569712540122e+01 2.673841508522158605e+01
-4.971426146520771638e+00 4.827859673618393543e+01 2.105993661840769349e+01
-5.209614268170607687e+00 4.823041342526025943e+01 2.736433442184576847e+01
-4.945366669643920687e+00 4.821295041460431463e+01 2.584124931231092503e+01
-5.058886351496997946e+00 4.818969781087358228e+01 2.968748056784676947e+01
-5.107198216789449852e+00 4.816347446841852076e+01 2.866553356378264539e+01
-5.373520710788163512e+00 4.815417310300777842e+01 1.733458010530199900e+01
-5.230318091990064922e+00 4.824792761301598176e+01 2.466772704557950391e+01
-5.094382466435447121e+00 4.817228907651411163e+01 2.915414217891444437e+01
-5.112456263337889162e+00 4.832672914418471066e+01 1.497925051855161449e+01
-5.014532954402590725e+00 4.808462532602243300e+01 1.679198130539765899e+01
-5.137720982858253294e+00 4.829727041042753655e+01 1.999463512327607262e+01
-5.291976988019036376e+00 4.829107220446464055e+01 1.664777242016801040e+01
-5.370012314893248373e+00 4.821416907912050931e+01 1.962026690511126858e+01
-4.955833433685672418e+00 4.820785998761942182e+01 2.718843426266107599e+01
-4.779222674960383443e+00 4.820045523736329329e+01 1.585909391123968071e+01
-5.101867431588444468e+00 4.817497652820364351e+01 3.013700267297463498e+01
-5.146326289853413449e+00 4.810458720703442737e+01 1.989616794240849273e+01
-5.331092009846901014e+00 4.822875633776367010e+01 2.155978928305927056e+01
-5.390161878873385604e+00 4.821047156329119332e+01 1.813211264312895210e+01
-5.153780047611403958e+00 4.814588378744434749e+01 2.591329467905279671e+01
-4.904148027263889986e+00 4.824333554998970186e+01 2.181088627062822383e+01
-5.279120628286726458e+00 4.819682505911299586e+01 2.466593702309329927e+01
-4.999544381825408834e+00 4.821161547090339639e+01 2.828702252619145696e+01
-5.397219093570806869e+00 4.811361421170963126e+01 1.289685709747445763e+01
-5.114343999048950096e+00 4.808972371467272922e+01 1.840094779273014680e+01
-4.926782974506607182e+00 4.818688209379775600e+01 2.476096708250974743e+01
-5.137626083469637450e+00 4.833514060079552621e+01 1.362073033964752966e+01
-5.063426944060590351e+00 4.821361742509392911e+01 3.036008635545425349e+01
-4.924866832583344234e+00 4.829776624017355147e+01 1.695006262241738071e+01
-4.782211684390848205e+00 4.817314477934447581e+01 1.642005208521498716e+01
-4.914989995445117721e+00 4.830518912720665980e+01 1.558393608202605485e+01
-5.003232193448806875e+00 4.816245368635694746e+01 2.695906031338715181e+01
-5.099433104216612556e+00 4.819436724328265598e+01 3.091649446214221442e+01
-4.872170664533183704e+00 4.817055465701947270e+01 2.092989577917812838e+01
-5.039480585151084213e+00 4.817552044100337127e+01 2.950715901959493692e+01
-4.985672961660794655e+00 4.818778695641678667e+01 2.841382590206153225e+01
-5.217105553737002133e+00 4.818927866081943279e+01 2.834017348460023200e+01
-4.946165753769579787e+00 4.833658880831320204e+01 1.172548700296175461e+01
-5.113015871404532398e+00 4.819781681049028776e+01 3.076259735001942985e+01
-5.100521118559021794e+00 4.819124149383565481e+01 3.078341006912693345e+01
-5.174257117733875866e+00 4.808763538222141420e+01 1.709941532403214737e+01
-4.840645232435933920e+00 4.827236062402276673e+01 1.626250447184580139e+01
-4.958281611140143319e+00 4.818882585323478196e+01 2.658379023794985585e+01
-5.351288053123569810e+00 4.814086121626886694e+01 1.736632353613077484e+01
-5.035784623367948853e+00 4.823743629782879339e+01 2.812769793503395022e+01
-5.003822548225708822e+00 4.830469055361287189e+01 1.810021921611644302e+01
-5.071553628608607589e+00 4.820901581582491957e+01 3.070567390634396432e+01
-5.171615956108373879e+00 4.831362765842518314e+01 1.688818852817183114e+01
-5.134923496131148291e+00 4.820934967047711694e+01 3.008583708282186819e+01
-4.914840529090957588e+00 4.812368858465990940e+01 1.910483785897157105e+01
-4.842767397518722206e+00 4.828613868182616642e+01 1.502932016077458677e+01
-5.403634367865680410e+00 4.826297089653797201e+01 1.483819867019166949e+01
-5.280349599157777796e+00 4.816384315122329696e+01 2.385879922062428449e+01
-5.219121953393838886e+00 4.823931648357407198e+01 2.651548597682369035e+01
-5.390129516644845964e+00 4.816847294119569511e+01 1.782640050497209216e+01
-5.245667601246727152e+00 4.827604207428127836e+01 2.110719467123427506e+01
-4.731351750622471819e+00 4.825353283884339817e+01 1.175294644576347913e+01
-5.088179131400772270e+00 4.825801704430688943e+01 2.636215315038640128e+01
-5.092693017689219559e+00 4.819598164305641319e+01 3.082086163809773183e+01
-5.096367549974178068e+00 4.820072470819070531e+01 3.011585536943658070e+01
-5.425254882817204916e+00 4.821117087202954821e+01 1.583447894342217488e+01
-5.034045858554089925e+00 4.831117238781929757e+01 1.693193517472951370e+01
-5.248448532108421105e+00 4.830472507947185790e+01 1.692277411537119747e+01
-5.268503269657183630e+00 4.823830534242655688e+01 2.358946589240138181e+01
-5.072863131224719879e+00 4.824462682047958140e+01 2.825378599308717753e+01
-5.183287566483729236e+00 4.824250235849384438e+01 2.680764907259973739e+01
-5.257463584660652778e+00 4.818437387706030250e+01 2.583666596978714125e+01
-5.044171460864703249e+00 4.828533383551482672e+01 2.212394525704594983e+01
-5.077306392511544253e+00 4.806117491328815561e+01 1.331313176700823675e+01
-5.046105515997321156e+00 4.819324186516895736e+01 3.027788542021126261e+01
-5.103171370602014534e+00 4.817561462073919643e+01 3.019583800970641718e+01
-4.859211181475648900e+00 4.812164599953123201e+01 1.596466105928709922e+01
-5.385709208988729735e+00 4.809891016063597391e+01 1.148882383778766325e+01
-5.080445112549974773e+00 4.820667210080302567e+01 3.066686236170458457e+01
-5.133777290718067654e+00 4.828180132035262062e+01 2.260323932484628884e+01
-5.142765816747341567e+00 4.818844569964863922e+01 2.969574884397718506e+01
-4.862619302541846267e+00 4.827085212803032732e+01 1.711965092596894067e+01
-5.177179279295546444e+00 4.817081009910954492e+01 2.810863293599528490e+01
-5.067526030717861119e+00 4.808924324463266231e+01 1.788972282143998171e+01
-4.886797031891679133e+00 4.810175837756681005e+01 1.570429614306630484e+01
-5.141780359851214399e+00 4.818770719976205186e+01 2.981082415088283000e+01
-4.938250235876582295e+00 4.818986360696545290e+01 2.539102837314534966e+01
-5.109553585993056757e+00 4.817575168579562472e+01 2.944491107116470729e+01
-5.110278282406661710e+00 4.819181888683677784e+01 3.005786264438848931e+01
-4.851630366897797586e+00 4.812419565316189818e+01 1.653806106701451739e+01
-5.059500864067864256e+00 4.819329780977744093e+01 3.017551019710797888e+01
-5.071516354127060033e+00 4.811125903062233533e+01 2.150691312024754609e+01
-4.811493114033162044e+00 4.821241815827973198e+01 1.824925122452199844e+01
-5.348219205111568897e+00 4.814308010663553006e+01 1.849076866756595550e+01
-5.070483621055479340e+00 4.829867369875612582e+01 1.942541775252102809e+01
-5.497749134656492842e+00 4.819183958491385056e+01 1.167880200815121938e+01
-5.114336584331845792e+00 4.819864791518786262e+01 3.065102150719170737e+01
-4.899043053621555011e+00 4.821107588440482772e+01 2.327651813664069991e+01
-5.002534933096551839e+00 4.823104888201769569e+01 2.756699413858113346e+01
-5.105639225502486944e+00 4.820142531534038710e+01 3.096494448313685055e+01
-5.219625584289516951e+00 4.809751287518307095e+01 1.722942288201721439e+01
-5.101451449789444759e+00 4.820088186394332297e+01 3.022666044635962379e+01
-4.895333257356042189e+00 4.825163107031212206e+01 2.052837288667402404e+01
-5.330419163153666595e+00 4.808265935285775328e+01 1.212027954645252414e+01
-5.100985187748570127e+00 4.834971354399898047e+01 1.202946005410999852e+01
-4.998991715461565732e+00 4.809976239110003604e+01 1.890278775524724253e+01
-4.869872391220114061e+00 4.816575618218702459e+01 2.127753066739674637e+01
-4.957401222987457778e+00 4.819092252011805755e+01 2.676521135005992136e+01
-4.964707043723199043e+00 4.824908739723426265e+01 2.411535648673990551e+01
-4.874705580765843038e+00 4.816974849773366429e+01 2.185674603338407707e+01
-5.150956786483681604e+00 4.822322863898450862e+01 2.958568348672186232e+01
-5.170257242805973874e+00 4.813539526355287990e+01 2.448878412204541277e+01
-5.142833910504402972e+00 4.809335738187028397e+01 1.844360152574978784e+01
-5.088590394462466193e+00 4.818575488991913147e+01 3.021801132178026705e+01
-5.195790994285886200e+00 4.830086371979422211e+01 1.826544413591945215e+01
-5.041646646309028590e+00 4.822549209147151572e+01 2.857152626078162783e+01
-5.174556201581062886e+00 4.825624684714359347e+01 2.574531568639734758e+01
-5.083420298134555537e+00 4.818706232075015095e+01 3.046243646390643889e+01
-5.126234330210363233e+00 4.833132286263684563e+01 1.462357815765483160e+01
-4.896782248275285632e+00 4.818569567589695168e+01 2.379290042861693522e+01
-5.072084321098723869e+00 4.824399699537162434e+01 2.793592478984768590e+01
-5.215530372640973411e+00 4.820250412033362153e+01 2.804372632873150550e+01
-4.931592247183697708e+00 4.824182356811110850e+01 2.416120329131546640e+01
-5.173508216065874521e+00 4.818607010406905289e+01 2.909139764608305256e+01
-5.029062216779250249e+00 4.817187384585616172e+01 2.822536322203221815e+01
-5.112477345617524094e+00 4.827920328141631501e+01 2.351971501620995753e+01
-4.979478059060475914e+00 4.813694939558224206e+01 2.374816621784924209e+01
-5.017236080230033757e+00 4.815682200019787729e+01 2.680146085347529805e+01
-4.877117702287374179e+00 4.818738988930009981e+01 2.251741748181827418e+01
-5.007897437899253568e+00 4.814054513087675247e+01 2.498290094225224678e+01
-4.936295240577403654e+00 4.824751822919689914e+01 2.389377124953675136e+01
-5.036779425419445566e+00 4.815535039528136707e+01 2.716491880924453284e+01
-5.149288419387690219e+00 4.824325482780533036e+01 2.777922739365559934e+01
-4.968791989143332088e+00 4.826520762551680832e+01 2.300368527063972834e+01
-4.924176846893041137e+00 4.814216535440593958e+01 2.225270011334917442e+01
-4.963748462540392481e+00 4.811939248126669355e+01 2.070539995339418482e+01
-5.275920755211244817e+00 4.823000047087034403e+01 2.409663571943186611e+01
-5.235495786567101462e+00 4.816730199953134672e+01 2.591562315792544169e+01
-4.997574220051898664e+00 4.810607928859982252e+01 1.977968462504413338e+01
-4.999566812916245162e+00 4.814045883948968907e+01 2.484643867826645192e+01
-5.441943570289444310e+00 4.817986482241632729e+01 1.509695856922012425e+01
-4.911976294351009464e+00 4.823717431411537149e+01 2.308242375050898687e+01
-5.407310965308285589e+00 4.827728996768884429e+01 1.330510781369051188e+01
-5.011502137810013302e+00 4.817787516669643821e+01 2.844509790866710119e+01
-4.774681072336896648e+00 4.826309945159071901e+01 1.390552938350110779e+01
-5.132654626296106137e+00 4.809111957382422986e+01 1.828271493551386939e+01
-5.011781880449104776e+00 4.820951057852107624e+01 2.867273529462118375e+01
-4.781343549708794605e+00 4.828299904257341524e+01 1.233148342477698556e+01
-5.350276009166509361e+00 4.817331652995324731e+01 2.006762856772571979e+01
-4.925201177141684816e+00 4.827012483042829416e+01 2.029386119523547904e+01
-4.998598562043812699e+00 4.822686628892434157e+01 2.769140085561513587e+01
-5.315382666236462050e+00 4.819939914335215292e+01 2.279794200835669571e+01
-4.874543405962883824e+00 4.813382231591299387e+01 1.799110933213826158e+01
-5.020852843216026429e+00 4.823849311401583861e+01 2.705248859192037614e+01
-4.815191621634605568e+00 4.813250436447381730e+01 1.488892897278160099e+01
-5.100408849233866171e+00 4.827263689412696124e+01 2.445902481103110304e+01
-5.094671378914264359e+00 4.830736729439457378e+01 1.802898783521865056e+01
-5.151904358708208065e+00 4.817527825815859188e+01 2.956774107153886888e+01
-5.156898644470424564e+00 4.817842946214312150e+01 2.915279385861015271e+01
-5.295693934903591860e+00 4.823741479588146319e+01 2.308711485001306229e+01
-5.109918043224750406e+00 4.820110798074018987e+01 3.089769463581005482e+01
-5.165606994586656064e+00 4.820596233235006878e+01 2.939230338179481450e+01
-5.083868206087362118e+00 4.808379071996596110e+01 1.674918071727711322e+01
-4.880354667142354330e+00 4.811575801632805138e+01 1.642481614593990003e+01
-5.392263306933307909e+00 4.814837215480154953e+01 1.641809172282797391e+01
-5.222434289233277127e+00 4.818771704019096092e+01 2.761821137565246431e+01
-4.871880026983128609e+00 4.816259781376302129e+01 2.061357836393854726e+01
-5.063342843631352785e+00 4.833816841015083554e+01 1.316277242964940797e+01
-5.114744267163831459e+00 4.821821980031860022e+01 2.960550383358086890e+01
-5.282017351257663584e+00 4.817345799934774675e+01 2.434785381157117001e+01
-5.109381678331355481e+00 4.805438853761624074e+01 1.210965298254939881e+01
-5.105396266823070128e+00 4.818623106989777227e+01 3.012734388790392259e+01
-4.950006371335451405e+00 4.832699730673211036e+01 1.276934009148446947e+01
-4.865840652366421715e+00 4.830403056910124349e+01 1.317717014555361210e+01
-4.996758856047339492e+00 4.809098044394472993e+01 1.678356804912115408e+01
-4.930871730700061129e+00 4.823583765907070386e+01 2.417954671043654358e+01
-4.765635280124084439e+00 4.816586052052984712e+01 1.449167021737844685e+01
-4.915531811521583805e+00 4.831436027128810906e+01 1.420443291555290877e+01
-4.982914331916686201e+00 4.824304891872998979e+01 2.572714020937207735e+01
-4.920574264154236488e+00 4.813481437711565292e+01 2.085431405574705721e+01
-4.908216637860896014e+00 4.811133837816679915e+01 1.741067505907320268e+01
-5.110028739419256283e+00 4.817325792717804234e+01 2.926668136040159851e+01
-5.161111984865417668e+00 4.815517918094103322e+01 2.684068256140371034e+01
-4.772092180712956377e+00 4.827927763358940894e+01 1.165637498911212511e+01
-4.871884847912446581e+00 4.823034981666143750e+01 2.179177032999104213e+01
-4.834715539144617935e+00 4.814159656158985001e+01 1.732495823544120483e+01
-5.030540943119619079e+00 4.816937540976501708e+01 2.807031497405854736e+01
-4.926589557391953811e+00 4.830231213794573364e+01 1.639570665626369106e+01
-5.371108650296282150e+00 4.826404257046754509e+01 1.620581595419231391e+01
-5.064710958122210727e+00 4.826330793628098803e+01 2.562118120344248950e+01
-4.901820337121333360e+00 4.817213630071834984e+01 2.315567656118330930e+01
-4.950349212756733230e+00 4.811359384811125040e+01 1.889550782579646793e+01
-4.874193826842600608e+00 4.812767457970747387e+01 1.774376836326145224e+01
-5.011476902338961814e+00 4.818318921982280756e+01 2.887981757257955806e+01
-5.201001604546199530e+00 4.815054209416405229e+01 2.603959483724906576e+01
-5.076013652748298632e+00 4.823770468089189478e+01 2.895270682452285982e+01
-5.084673214763435922e+00 4.816257397137446361e+01 2.895348732520832513e+01
-5.043189042986020887e+00 4.813559878293694538e+01 2.532701481129306487e+01
-5.220473833963922061e+00 4.810528703014261254e+01 1.876316232082301738e+01
-5.314510667790340648e+00 4.824231982004037178e+01 2.134659654955358121e+01
-4.955219756679258403e+00 4.806452725083081390e+01 1.184023342831693881e+01
