-5.058568041223062473e+00 4.831411398847573224e+01 1.174585425781030423e+01
-5.107965905329148626e+00 4.831170377742303401e+01 1.150511999794868601e+01
-5.080170990401161824e+00 4.824421333957225499e+01 1.114108504029702829e+01
-5.041508137069037332e+00 4.817251082872622447e+01 1.166087639718113245e+01
-5.099637821567116092e+00 4.829846031044925070e+01 1.180011150170517453e+01
-5.090243763649399789e+00 4.832871102001457331e+01 1.175934413071058415e+01
-5.031089315056868294e+00 4.826370419865667571e+01 1.196890604437444239e+01
-5.011205752331988172e+00 4.821494995136767869e+01 1.177339880487472712e+01
-5.056290483915248934e+00 4.828790395975661198e+01 1.110529772023110340e+01
-5.030471273028735091e+00 4.828606888723712842e+01 1.152133460957765010e+01
-5.098811254878894417e+00 4.829890150187669207e+01 1.116214618341029663e+01
-5.043296320207517169e+00 4.837190319577069886e+01 1.132856992665679030e+01
-5.108023216073392270e+00 4.829077117131748764e+01 1.104150573770571242e+01
-5.231990455015218089e+00 4.823563494999817891e+01 1.108963525225461311e+01
-5.018569794416674057e+00 4.825841420283230576e+01 1.139470171440316015e+01
-5.189144172085370599e+00 4.820275946707872095e+01 1.166927352174238308e+01
-5.141371239187193964e+00 4.822294287756047737e+01 1.194599850994047863e+01
-5.181164428279836365e+00 4.837369856917309363e+01 1.159412604827611837e+01
-5.132244088726276132e+00 4.817955908229549067e+01 1.158061777423977290e+01
-5.163774596309390397e+00 4.840777490074307821e+01 1.189383196045908875e+01
-5.088374821364910261e+00 4.832446971143394165e+01 1.160777179597370079e+01
-5.233935842910815595e+00 4.833622748370135724e+01 1.202689623075446335e+01
-5.065029643454637132e+00 4.842648583524596262e+01 1.170949145667425384e+01
-5.169070355242977755e+00 4.821837934938832149e+01 1.162960493070430523e+01
-5.044171577723625788e+00 4.836793642627308287e+01 1.169766312837772837e+01
-5.191025239318953766e+00 4.828662554098424664e+01 1.114299191451202020e+01
-5.112074047053581261e+00 4.835840414613866045e+01 1.171964219761779802e+01
-5.024138016639685844e+00 4.830057503675452324e+01 1.148450593252616336e+01
-5.190454268894411527e+00 4.826837961450749503e+01 1.142968372673455590e+01
-5.139407483411777555e+00 4.830951295016453173e+01 1.189066297883013590e+01
-5.038855490840012052e+00 4.818302509906936137e+01 1.197980859545938515e+01
-5.102481644038758368e+00 4.825565353964316984e+01 1.117238506857695590e+01
-5.032293198905435361e+00 4.823893737135011150e+01 1.112623965707103935e+01
-5.213825977764053654e+00 4.823690507895883428e+01 1.193263255099289921e+01
-5.043451669551141769e+00 4.817459823132020347e+01 1.154780979625066095e+01
-5.107589727657828149e+00 4.827823967967059815e+01 1.111857619929868690e+01
-5.021035525370446173e+00 4.830174731137853428e+01 1.153706368339278043e+01
-5.079822871326443057e+00 4.823654864060839031e+01 1.181775508523534235e+01
-5.104963262048344497e+00 4.822023185259795497e+01 1.172156659736748274e+01
-5.103592699099484875e+00 4.831117729132977701e+01 1.124335696476396684e+01
-5.228572318767914062e+00 4.825318464132127616e+01 1.152024177571723484e+01
-5.074559814418325487e+00 4.837612109354229517e+01 1.110634556393328864e+01
-5.218734226171403812e+00 4.835800694215634365e+01 1.104042154357286876e+01
-5.108747961920154346e+00 4.830280308268346090e+01 1.186538392017970089e+01
-5.204003769754505626e+00 4.832676076007244603e+01 1.120699851678627113e+01
-5.002342566604148111e+00 4.834247542154115251e+01 1.175363230882318355e+01
-5.154480060783877882e+00 4.833502144612717899e+01 1.168699457525749352e+01
-5.099971091930521006e+00 4.829984120875047893e+01 1.181469738834554661e+01
-5.072901132115968714e+00 4.831166868013404780e+01 1.188333637993159542e+01
-5.069282726638637548e+00 4.837818681328586479e+01 1.179878192758323152e+01
-5.120856700037164977e+00 4.839733136571084771e+01 1.167753419425149985e+01
-5.098435240130746671e+00 4.830025805605447431e+01 1.106042281892899837e+01
-5.101952554772653414e+00 4.826723932173936760e+01 1.193651564331749704e+01
-5.029091897659381694e+00 4.826177584609958160e+01 1.139029232854707807e+01
-5.093694508781168473e+00 4.833450852886709015e+01 1.174682590111147285e+01
-5.161373732274951998e+00 4.835959560873989460e+01 1.130432359665387487e+01
-5.112421776072697988e+00 4.824629299457731690e+01 1.157851288840892856e+01
-5.047202253420163487e+00 4.833832099543074179e+01 1.169537811085826640e+01
-5.094156749424192832e+00 4.831075673050020214e+01 1.182013560426422494e+01
-5.082597926118432419e+00 4.827814837812324811e+01 1.164462281192498594e+01
-5.071319668949538340e+00 4.828178511772362214e+01 1.165859931710982522e+01
-5.093260050838550157e+00 4.829876041422807020e+01 1.106199131879076347e+01
-5.109567074366099249e+00 4.829094779646647595e+01 1.166709960199766272e+01
-5.029658116044342542e+00 4.841369306102350833e+01 1.185806924764614578e+01
-5.040883800536252402e+00 4.825248273202043237e+01 1.176016437390617853e+01
-5.102214465431453405e+00 4.838074406763588797e+01 1.109288622072778985e+01
-5.100380894708187007e+00 4.831935947259754727e+01 1.157600644595445871e+01
-5.078738880812051271e+00 4.826671262050332700e+01 1.148649080315096782e+01
-5.081491766957127787e+00 4.834704225582986226e+01 1.128994764821288221e+01
-5.052611635395423129e+00 4.821173302879522993e+01 1.153738287078375180e+01
-5.000990078805754635e+00 4.834170902819800375e+01 1.139692576639457222e+01
-5.084242959053862698e+00 4.831624437505037406e+01 1.160561559739658222e+01
-5.057880646447245887e+00 4.819435235857247335e+01 1.109127065344951113e+01
-5.024741562214352086e+00 4.839302597665848538e+01 1.113783276017120372e+01
-5.080774850550580091e+00 4.830916548862641946e+01 1.145896685031569540e+01
-5.110232075680768205e+00 4.834214869267983516e+01 1.202407130213125441e+01
-5.116255216655374305e+00 4.840071969283987841e+01 1.169162217126019065e+01
-5.165607682785249288e+00 4.837338303111292959e+01 1.155041250529433050e+01
-5.119369571703596300e+00 4.826957472478416378e+01 1.161923599763603576e+01
-5.105393409043843533e+00 4.826493104691837743e+01 1.168931707009158671e+01
-5.155914875339476566e+00 4.825367398101718663e+01 1.168169757499412498e+01
-5.064453361752376814e+00 4.832450543893870787e+01 1.175919260873987682e+01
-5.173629502640157085e+00 4.837643493933182981e+01 1.120736323818129776e+01
-5.083669145813860091e+00 4.828815076834221998e+01 1.182944436015477940e+01
-5.013207983958137604e+00 4.828675514426373638e+01 1.129387638663279780e+01
-5.103336992325221644e+00 4.828008618829932175e+01 1.119642756854262799e+01
-5.038478917497469567e+00 4.816377076992142037e+01 1.107333996564691603e+01
-5.092531146672311770e+00 4.825349307284862732e+01 1.165410752525304972e+01
-5.019068988234058004e+00 4.820683482227877192e+01 1.162037381022930482e+01
-5.102023107455009310e+00 4.820319614257696372e+01 1.162377495300379771e+01
-5.228164425083233091e+00 4.833366855271477647e+01 1.189196565100584735e+01
-5.240335050384225646e+00 4.826330258138584384e+01 1.186630808336482090e+01
-5.096573986261218714e+00 4.838103222129527836e+01 1.197956738226687357e+01
-4.990413094789477810e+00 4.824092619190550835e+01 1.169215673926162680e+01
-5.153839546965732765e+00 4.817575032434408655e+01 1.133378846278308316e+01
-5.144419437818831042e+00 4.839462522066855854e+01 1.187692855610101894e+01
-5.189435864429452039e+00 4.830592001399069346e+01 1.115467318537651131e+01
-5.103998997763251388e+00 4.837417667293681944e+01 1.163118673192925456e+01
-5.018999586112514066e+00 4.822201607060642914e+01 1.190354308104223868e+01
-5.027069086220820715e+00 4.832550612199209894e+01 1.135638618063987693e+01
