-5.135172022591986796e+00 4.818764884159158868e+01 1.482944402375431281e+01
-5.168948224501796140e+00 4.816693800878054077e+01 1.402164221038082736e+01
-5.332498963196464992e+00 4.816196996414085163e+01 6.415119350896853589e+00
-5.240026493586389833e+00 4.822571751052776534e+01 1.220002883771025459e+01
-5.201091655973273831e+00 4.813234942077803424e+01 9.711344023672733528e+00
-5.206591022716877681e+00 4.820708634228336109e+01 1.408836541381054808e+01
-5.169666675427897928e+00 4.818973659028781498e+01 1.504954354554213580e+01
-5.171395798985889414e+00 4.819525537115588065e+01 1.507379886890973530e+01
-5.156214491311025938e+00 4.819928734715309560e+01 1.535508869632743156e+01
-5.162849868098350115e+00 4.814986881848235356e+01 1.194454578463291661e+01
-5.305375172659993588e+00 4.824290625187995118e+01 6.825950914890873911e+00
-5.289313804743050795e+00 4.815027257788363357e+01 7.449254601788849683e+00
-5.157856120930831345e+00 4.828388363719427900e+01 7.496848629304190936e+00
-5.074488113893379726e+00 4.822390284177001973e+01 1.239856143615287642e+01
-5.086080689295018331e+00 4.818508804704225668e+01 1.404687581616923531e+01
-5.047364829929527730e+00 4.816082684275095005e+01 1.081234120629080309e+01
-5.095564564440192790e+00 4.818936002578282540e+01 1.413184167126756030e+01
-4.983822755115878245e+00 4.822040395666901702e+01 7.643921857032732525e+00
-5.260959531028973402e+00 4.828191700559296606e+01 6.087004156254194775e+00
-5.086059622064180274e+00 4.824126569002745413e+01 1.216656902026054965e+01
-5.048215046666916450e+00 4.822737925074874710e+01 1.081776627011581482e+01
-5.181608931666414897e+00 4.818904196445507182e+01 1.532285293947174942e+01
-5.054060986373270836e+00 4.827171700254994136e+01 7.540574629742354595e+00
-5.241092322441182283e+00 4.813802169619841465e+01 8.716572299346596608e+00
-5.063209421377257158e+00 4.823405358419199729e+01 1.144871888747124267e+01
-5.174659746098584812e+00 4.816997341095641616e+01 1.371940237975027621e+01
-5.231096171033347453e+00 4.822795379524195880e+01 1.184669299528458097e+01
-5.117006590162496593e+00 4.826490730635762816e+01 9.742887720215270164e+00
-5.070378372763946651e+00 4.818218954064405324e+01 1.240726007053671509e+01
-5.217901601272078693e+00 4.821212020479124050e+01 1.335926464797248236e+01
-5.141130495937573208e+00 4.819826989260684513e+01 1.505431445874149254e+01
-5.175851155400522430e+00 4.821488132081301359e+01 1.490315291683741350e+01
-5.057961230678432507e+00 4.826720086663890896e+01 8.535543002905134458e+00
-4.986843255749075610e+00 4.815341671691748360e+01 7.166367216562397502e+00
-5.181417517435748188e+00 4.811159361944196178e+01 7.684457399708288783e+00
-5.194613173551827501e+00 4.822595644560328765e+01 1.415307023216347204e+01
-5.282252089859709621e+00 4.820677933300532203e+01 1.013345495935683616e+01
-5.052457081496010360e+00 4.814369189045613240e+01 9.539213777891804469e+00
-5.128785254698662754e+00 4.814611039741746623e+01 1.206782455122416486e+01
-5.066647995633505985e+00 4.828447901153000288e+01 7.070574514267763178e+00
-5.126691409887331297e+00 4.820259504441984433e+01 1.567019308743494754e+01
-5.157940001648767314e+00 4.821844942449335036e+01 1.509095583889553716e+01
-5.084855719495029902e+00 4.821147921872893960e+01 1.383636896698807561e+01
-5.240407658369019117e+00 4.816679925017562880e+01 1.126223994430845288e+01
-5.062371480126213186e+00 4.823369138898069508e+01 1.177124915820692230e+01
-5.151768322724088023e+00 4.822938554336268879e+01 1.452778819963233659e+01
-5.240552085390297599e+00 4.820812947319775077e+01 1.247257998372422882e+01
-5.338282303648753668e+00 4.822348930531968847e+01 6.536544482594839778e+00
-5.138832254173126834e+00 4.820306900088956326e+01 1.495136401552658256e+01
-5.117083092067178818e+00 4.821480305991612170e+01 1.467815751019745996e+01
-5.149677831981713361e+00 4.820973207324473009e+01 1.543347442246719581e+01
-5.233848590327033534e+00 4.812252300629474178e+01 7.187959167697916207e+00
-5.129425808158362798e+00 4.823646870779255380e+01 1.320174538833302869e+01
-5.125901592077526381e+00 4.822668647924590601e+01 1.423674530549345185e+01
-5.089913479595217893e+00 4.824301354414306076e+01 1.164458261658084659e+01
-5.163700405860797815e+00 4.819388178875868078e+01 1.529539284893319007e+01
-5.198591551552708800e+00 4.826251146561521921e+01 1.050455361716208813e+01
-5.083721200797727491e+00 4.819365047604187424e+01 1.367463696997463884e+01
-5.131533819709964028e+00 4.829811328844364482e+01 6.157384308245785753e+00
-5.144025645371957722e+00 4.821910409136469156e+01 1.456452683945050097e+01
-5.240889354277937784e+00 4.813651087495331637e+01 9.123878072212136203e+00
-5.252948558513189425e+00 4.818825059989833193e+01 1.198548144198453613e+01
-5.251281989574953180e+00 4.817897426082742385e+01 1.138467739324103789e+01
-5.082260507909277969e+00 4.812821422878973721e+01 8.469885781060332519e+00
-5.121129577102260022e+00 4.818378450164502169e+01 1.527400437124667931e+01
-5.267362590133289224e+00 4.820625955662546147e+01 1.065251788490839857e+01
-4.974948317858379987e+00 4.818538822416885381e+01 7.052471588861398466e+00
-5.181530664160838739e+00 4.811513052885568698e+01 7.908253608647080490e+00
-5.070581803951938582e+00 4.825324881067633953e+01 1.003111582958712411e+01
-5.231715571040135515e+00 4.822937361321494620e+01 1.222961575442658422e+01
-5.184736287279064548e+00 4.819265033679150179e+01 1.464158186036285336e+01
-5.151785144932072846e+00 4.814322231695492604e+01 1.143039601084084644e+01
-5.159988859036984898e+00 4.818405906967666397e+01 1.508498776986084167e+01
-5.303653715721988071e+00 4.824073572025227463e+01 7.579018529765458645e+00
-5.294031405139061341e+00 4.819499420622096864e+01 9.165929430503211961e+00
-5.008002214765620685e+00 4.824206213112030639e+01 8.169973614559348007e+00
-4.977173180370002115e+00 4.815643371384968674e+01 6.144315677492897976e+00
-5.310916556576500192e+00 4.818831305464341597e+01 8.436396915974714972e+00
-5.166764499373559971e+00 4.822835564027133159e+01 1.396773406251322314e+01
-5.209452671856803718e+00 4.811999019046720605e+01 7.650902758346830090e+00
-5.156884906203444530e+00 4.826611666335449513e+01 9.734893099293559615e+00
-5.134514911001320847e+00 4.813633683246622041e+01 1.060056805540538605e+01
-5.238026030043875458e+00 4.822964633854410010e+01 1.135879152221120414e+01
-5.128536433790605642e+00 4.814527970713579208e+01 1.178897024679910821e+01
-5.117463103199161978e+00 4.818757030269892994e+01 1.444142755901354924e+01
-5.147641407818490222e+00 4.821929808618111934e+01 1.482289908363435771e+01
-5.222209570507160947e+00 4.817616893554962587e+01 1.286835270401179976e+01
-5.069610927260299604e+00 4.817697895099180272e+01 1.280015265427263671e+01
-4.993189586720979456e+00 4.820466507117424726e+01 9.019505888477025835e+00
-4.957610404478892008e+00 4.819106685285914438e+01 6.507259007004721596e+00
-5.204342338917292032e+00 4.825061761826595585e+01 1.175780534700934687e+01
-5.201191537567916079e+00 4.828345021268220449e+01 7.780554834247022100e+00
-5.147554597109470720e+00 4.819751373428791652e+01 1.593033908286658473e+01
-4.989673645238815070e+00 4.821143716518212585e+01 8.419363915057143544e+00
-5.071425686391569876e+00 4.814945139203364732e+01 1.037998659323048400e+01
-5.109901332825844911e+00 4.816825175740191156e+01 1.306469123792003195e+01
-5.082557170939943525e+00 4.819634061451797180e+01 1.420689463835849864e+01
-5.230593062627008294e+00 4.815765615718955672e+01 1.160022372820182923e+01
-5.245279491104864356e+00 4.815845292511505704e+01 1.104881707634501709e+01
-5.104420323778517066e+00 4.810383449090486607e+01 5.986086512370658141e+00
-5.026163717685955490e+00 4.823809399076066029e+01 9.266505911104211179e+00
-5.167814130973875208e+00 4.815211609761400524e+01 1.225904530017908911e+01
-5.283301187578954838e+00 4.825977540133837351e+01 6.796456715435727602e+00
-5.081408616457596672e+00 4.819356653956219105e+01 1.405846204892051965e+01
-4.983957221856025299e+00 4.820997375826795661e+01 8.433069038292359210e+00
-5.267882492529639471e+00 4.821101762382247813e+01 1.070537231899155906e+01
-5.145964300878964615e+00 4.816944105943349541e+01 1.432362129276252283e+01
-5.201131242351019424e+00 4.816022043406059794e+01 1.272665215271464234e+01
-5.003273845488827476e+00 4.815395242029901368e+01 7.089091979574845936e+00
-5.146360931734324851e+00 4.816662789766011343e+01 1.347030323209872904e+01
-5.225000620296139431e+00 4.825858148903818545e+01 9.630665650459294014e+00
-5.145095391457398470e+00 4.815845431570881630e+01 1.334897631874041579e+01
-5.072013826018523908e+00 4.815014670330403135e+01 1.088296951764774612e+01
-5.063471079797244201e+00 4.824006003233811413e+01 1.100098382082505211e+01
-5.290289227048538656e+00 4.826431271597608230e+01 6.718708503968817247e+00
-5.218578390082312168e+00 4.823546000739169415e+01 1.214672514647952362e+01
-5.141041781878104899e+00 4.817300031372100477e+01 1.408790856092000965e+01
-5.218540175282718074e+00 4.820020514481626606e+01 1.406394087691916717e+01
-5.308148092217799707e+00 4.816468043346463190e+01 7.263853898733954040e+00
-4.953064815118997544e+00 4.819381892389417743e+01 6.079642763317744780e+00
-5.172812510311176837e+00 4.824068159643098141e+01 1.283533522054957210e+01
-5.229055317272700343e+00 4.820531398952327606e+01 1.371556948554926869e+01
-5.154537179891568677e+00 4.829883047910335137e+01 6.640347052023183316e+00
-5.114175869052647982e+00 4.810363960682207818e+01 6.422457047779069228e+00
-5.256949066824001982e+00 4.812327218575494925e+01 7.236031361281962226e+00
-5.201255727212958924e+00 4.819295076838817238e+01 1.459592067470693699e+01
-5.008221002168246727e+00 4.824410387041631054e+01 8.393369823827597997e+00
-5.141601031317034831e+00 4.821048249769440019e+01 1.502959321007805649e+01
-5.153606425787986112e+00 4.819903089400050789e+01 1.543746259698549217e+01
-5.026548905236288611e+00 4.820340183415753188e+01 1.053087844084669022e+01
-5.299057165330411934e+00 4.821765010361545478e+01 8.782606984874366418e+00
-5.146400682832187989e+00 4.815041423778987451e+01 1.235957559031788477e+01
-5.126781757141149143e+00 4.818945923823842747e+01 1.543039605242055856e+01
-5.245157198178249658e+00 4.817685928066692469e+01 1.213261608115303325e+01
-5.186569347610515912e+00 4.820459150429962136e+01 1.450891314131165721e+01
-5.300729905582712398e+00 4.816762269830719134e+01 8.260340058312218403e+00
-5.227611533640464714e+00 4.816298091765926159e+01 1.203881340575714276e+01
-5.155567425479443244e+00 4.826112662542413290e+01 1.045698642154833280e+01
-4.992301774348977261e+00 4.820022800503692650e+01 8.471335215006234876e+00
-5.068870028587513232e+00 4.817325886950957425e+01 1.214138599116706452e+01
-5.258858849870583718e+00 4.821488697847678395e+01 1.100313738920950613e+01
-5.035545270556439412e+00 4.813908838784055177e+01 8.438460583545143834e+00
-5.029045112797058792e+00 4.815070045620674222e+01 8.912477688841487833e+00
-5.287062033221599400e+00 4.818799859399740626e+01 9.577063428149994451e+00
-5.079293704501636419e+00 4.822979813963402052e+01 1.268106244261320015e+01
-5.065207543784642219e+00 4.820216061082422954e+01 1.276345194543606887e+01
-5.208291468353863252e+00 4.821408017380760214e+01 1.415805063257639063e+01
-5.155677285384806297e+00 4.819767815658845223e+01 1.564230944935438039e+01
-5.064363634205037101e+00 4.815265523439396844e+01 1.059656541895278536e+01
-5.030478241828540753e+00 4.814878660864096815e+01 8.909117595819774138e+00
-5.243575937741626447e+00 4.819738269544458831e+01 1.287851207353152816e+01
-5.189225655067960297e+00 4.819737737374783393e+01 1.483948077631490037e+01
-5.304481354434196660e+00 4.815948710994448589e+01 7.390465753703648666e+00
-5.160873432197272237e+00 4.821170836904929757e+01 1.510371463448095497e+01
-5.301534627615078321e+00 4.815156051173856611e+01 7.203053212976818109e+00
-5.148454500767154940e+00 4.820226889474992049e+01 1.578970664507959398e+01
-5.119694657193449849e+00 4.819686709465651830e+01 1.514430303875417394e+01
-5.156478555054007096e+00 4.820063495609045390e+01 1.585063107232062940e+01
-5.249797330958317687e+00 4.819069328249918271e+01 1.246076800595965928e+01
-5.122520843429461124e+00 4.826993203599584348e+01 9.039267253368329591e+00
-5.250740582080839047e+00 4.822500841020467277e+01 1.168850083329634870e+01
-5.237366396021254644e+00 4.825132719257439362e+01 1.004104661284067745e+01
-5.205593673627302742e+00 4.818594768233264602e+01 1.404304720330753220e+01
-5.155744234039079110e+00 4.820368489369908360e+01 1.529587822521600948e+01
-5.074475800755116950e+00 4.817548778128092835e+01 1.255278056372644713e+01
-5.132307593385131206e+00 4.818060726157399642e+01 1.493101910540028676e+01
-5.207564118481307958e+00 4.824880802706737626e+01 1.186723903402929814e+01
-4.981962791830708781e+00 4.816742355033095890e+01 7.231606318717004100e+00
-5.111406757413955226e+00 4.825306242569158854e+01 1.172836397672605280e+01
-5.139184079901381708e+00 4.822680090692619359e+01 1.432643375995548851e+01
-5.074282820894789658e+00 4.817160699191799011e+01 1.263648860449438160e+01
-5.191098061105865469e+00 4.824859645259687824e+01 1.230362905769233883e+01
-5.009983455347008174e+00 4.821335591923059383e+01 9.112772873950497399e+00
-5.184078310355451080e+00 4.811186438794909037e+01 7.110688240232251545e+00
-5.198571469739743378e+00 4.823489645802529679e+01 1.334253927586422073e+01
-5.168455050740182521e+00 4.815193129991695997e+01 1.228467573906097066e+01
-5.055626065495952837e+00 4.817516625882195314e+01 1.129539063698408619e+01
-5.293367802934578314e+00 4.817382273703588424e+01 8.884260217490716371e+00
-4.966262966208036644e+00 4.817953220107644796e+01 6.575021628633430204e+00
-5.153738025877371065e+00 4.826109929389084385e+01 1.097555754287031071e+01
-5.110989406244011768e+00 4.825343757007776446e+01 1.182911038679600679e+01
-5.145441246206233998e+00 4.820730548210242716e+01 1.554544206876249568e+01
-5.114593866327578731e+00 4.819893037356456489e+01 1.516340699472925735e+01
-5.086570786040235603e+00 4.817517665739902810e+01 1.310863548034582315e+01
-5.119023104021587223e+00 4.825230735392747050e+01 1.175163178730324987e+01
-5.150364328473762576e+00 4.820075046978235633e+01 1.581974388753096505e+01
-5.227310754359801415e+00 4.827384151989619454e+01 8.380940390586326671e+00
-5.144826533647575140e+00 4.820958286275973848e+01 1.500413489484459717e+01
-5.233565979954448721e+00 4.823120624795171096e+01 1.146777217025044493e+01
-5.098275529519395555e+00 4.825636652305652063e+01 1.067787689052423694e+01
-5.120664715563656877e+00 4.818130590994557139e+01 1.459992126619881425e+01
-5.106877900192445807e+00 4.828589575591075089e+01 7.369624884750221483e+00
-4.963894046737120647e+00 4.821636561874647953e+01 6.688606162802606114e+00
-5.119416090828991628e+00 4.825895368192444579e+01 1.101998391242817910e+01
-5.097136994052728909e+00 4.822516481822282230e+01 1.315766552734279138e+01
-5.192569826704350078e+00 4.819015799710197001e+01 1.486666150110572104e+01
-5.145327071112101969e+00 4.819982130110152951e+01 1.528720306959906061e+01
-5.155445089255121793e+00 4.819377864960073055e+01 1.530321988091786167e+01
-5.117762485983143428e+00 4.820354980910481402e+01 1.508152748045003122e+01
-5.146787054650712179e+00 4.819838077029728396e+01 1.566997780086810010e+01
-5.104936233395580558e+00 4.814444785297661866e+01 1.082999314044050720e+01
-5.097071935682007116e+00 4.819458132360396974e+01 1.403573627613830155e+01
-5.215628748814371995e+00 4.814127107012254214e+01 1.013990625283201474e+01
-5.179925804132098577e+00 4.819013148647523792e+01 1.518505186154558473e+01
-5.115695414717071010e+00 4.826319061302365299e+01 1.051168227573428737e+01
-5.158503958560845426e+00 4.818804607430495679e+01 1.569711615495955925e+01
-5.105777854815531036e+00 4.821255610192867636e+01 1.408623257647333205e+01
-4.997981600820601500e+00 4.823692760245042876e+01 8.210081782462548716e+00
-5.068330912014391565e+00 4.814577210585326839e+01 1.018714223433224397e+01
-5.030045544066784835e+00 4.819292486574461520e+01 1.113799702809822278e+01
-5.273055057934367795e+00 4.816488560862124757e+01 9.784349382711507559e+00
-5.283950075513357270e+00 4.824566361969883133e+01 7.793942098024468024e+00
-5.016421052849896256e+00 4.813590039185465486e+01 7.291733135342677308e+00
-5.276839190622101050e+00 4.812458818847044739e+01 6.108496719555031262e+00
-5.153241626882225646e+00 4.820108137009212612e+01 1.531964786966158165e+01
-5.127284135061100478e+00 4.815879859917338024e+01 1.306624559488287218e+01
-5.004616325034495716e+00 4.818391212618890762e+01 9.084141780431703950e+00
-5.184215331735434695e+00 4.820894298999638750e+01 1.450954698574652468e+01
-5.157026809232959863e+00 4.817409546051552383e+01 1.476644912431303780e+01
-5.252982767710820511e+00 4.822003059542898740e+01 1.114517149220445091e+01
-5.151086716375205654e+00 4.823091083798075118e+01 1.389095637939890970e+01
-5.156444182434054113e+00 4.822544535048520231e+01 1.406898677636004180e+01
-5.088087456394736030e+00 4.823340860900827209e+01 1.262127310385913148e+01
-5.195494638390155018e+00 4.815299840849755952e+01 1.180477264513612035e+01
-5.074053325229527900e+00 4.811226912383352783e+01 6.357083723516811169e+00
-5.151285656276169966e+00 4.825193347999209692e+01 1.189001613795623058e+01
-5.250495706745823554e+00 4.826143363988706625e+01 8.248365184889603796e+00
-5.127612905668072152e+00 4.823414589333337688e+01 1.392694555353340924e+01
-5.220444768380179568e+00 4.815006175797246613e+01 1.091785470334183117e+01
-5.219236273983812069e+00 4.820438660463448599e+01 1.373981626459762673e+01
-5.168381152055004257e+00 4.828854718617095187e+01 7.735280807412151738e+00
-5.158216544040042706e+00 4.815405923352785322e+01 1.270245452699817967e+01
-5.083155569713726507e+00 4.818886608165021812e+01 1.399886604564458636e+01
-5.146137612722588628e+00 4.818915422136975479e+01 1.499639151201211007e+01
-5.080962243147412849e+00 4.816908254059752181e+01 1.231280623396003371e+01
-5.149911412022518675e+00 4.819427829034567878e+01 1.582680258288430686e+01
-5.086126616809324652e+00 4.821309174852210333e+01 1.385200976770335579e+01
-5.007789869966300600e+00 4.815953924427882527e+01 8.191694952058288237e+00
-5.044486587281218348e+00 4.825683871572451977e+01 9.097406816906469018e+00
-5.237394510126951452e+00 4.823797338171819860e+01 1.125263315386216512e+01
-5.145894239656467306e+00 4.819851105855185835e+01 1.516208802260441146e+01
-5.145695453187712154e+00 4.816465410596452301e+01 1.418659850279288648e+01
-5.071502472501254744e+00 4.827352142920997125e+01 7.945896380733536546e+00
-5.154794383594119900e+00 4.813777105562746783e+01 1.100996781130838187e+01
-5.049393165763718549e+00 4.820810257798314069e+01 1.224083083399805361e+01
-5.210753965512448183e+00 4.815949983275630331e+01 1.190215363078502264e+01
-5.288039261285197412e+00 4.819323766072945858e+01 1.022498457146251205e+01
-5.129949240335937688e+00 4.822698838233736041e+01 1.453956615982701805e+01
-5.168175683733618797e+00 4.820330225074418706e+01 1.537553012277786912e+01
-5.322051928956692102e+00 4.817012146711838483e+01 7.095956748966278482e+00
-5.111159439901478585e+00 4.816837456073051271e+01 1.328710891586324649e+01
-5.205654347861261577e+00 4.824516622855183812e+01 1.155336089219271400e+01
-5.175185361093801895e+00 4.821598985237113055e+01 1.521090942831148674e+01
-5.248680773273389555e+00 4.823056943490872328e+01 1.082178457035009878e+01
-5.279141088770987977e+00 4.822871088559825381e+01 9.225328091794697372e+00
-5.153481169995877131e+00 4.819719868961643527e+01 1.518864243114413171e+01
-5.112699958659147725e+00 4.821771562466933858e+01 1.458317540921897937e+01
-5.083669987823021152e+00 4.810586680721088015e+01 5.971891333048506390e+00
-5.216197540823305445e+00 4.822178459932732864e+01 1.310037664187951023e+01
-5.325788886548835421e+00 4.821791433768484580e+01 7.259459370830398051e+00
-5.192590811588826405e+00 4.817667314994931616e+01 1.413244136006148999e+01
-5.267659314951655070e+00 4.820572178059043011e+01 1.090655084563343458e+01
-5.090004502351097138e+00 4.823385132397696395e+01 1.300490728338729340e+01
-4.966521216487151058e+00 4.816847651824819110e+01 6.563366549765489388e+00
-5.147139443116103052e+00 4.829419548753418923e+01 6.443753318159172849e+00
-5.138382781723579207e+00 4.815836199598674483e+01 1.290093782907430686e+01
-5.166055940251438550e+00 4.817685581514258786e+01 1.431039836313947511e+01
-5.291798732952210926e+00 4.816764540311196185e+01 8.302524351386034951e+00
-5.118806484081808605e+00 4.820256764700128826e+01 1.500261860251572443e+01
-5.027304687306534348e+00 4.818949833491706869e+01 1.036851292804109193e+01
-5.036982571563695998e+00 4.822635595895378913e+01 1.102470678960442108e+01
-5.123550973900508509e+00 4.814913312382709165e+01 1.155727220789015419e+01
-5.223411675129519871e+00 4.817200881606448348e+01 1.276017710698861585e+01
-5.158125439400101264e+00 4.827090044289197124e+01 9.999887132436356296e+00
-5.155309052994555330e+00 4.820591139955569560e+01 1.503497331744961940e+01
-5.192732929352376736e+00 4.829425394183274989e+01 5.917648653222059352e+00
-5.103858320846867969e+00 4.823737711828962915e+01 1.319358791157090316e+01
-5.203858691303099526e+00 4.823589043095420692e+01 1.280358819239251389e+01
-5.181803142395071227e+00 4.814595825427652187e+01 1.106413884470932807e+01
-5.046719249508171856e+00 4.818290168893273062e+01 1.209166319753723329e+01
-5.183319844620332795e+00 4.823575051894638932e+01 1.295975603726523850e+01
-5.173067653062080495e+00 4.821806636078517982e+01 1.444892900700585869e+01
-5.079485779560166669e+00 4.810661719217966237e+01 5.673552301627861283e+00
-5.083246285286979749e+00 4.812362924302357214e+01 8.155399910238831040e+00
-5.055834057404983817e+00 4.824216382219417198e+01 1.050673310717885656e+01
-5.137609091769967051e+00 4.820307289390552796e+01 1.536629108651295539e+01
-5.058519557020587420e+00 4.813148523804759549e+01 7.880381960728201740e+00
-5.108075388193820565e+00 4.815016686838684734e+01 1.214292508749962529e+01
-5.029852876604777201e+00 4.824965386505061815e+01 9.139335177885808292e+00
-5.146147021707591307e+00 4.818629754884815952e+01 1.522990350810808557e+01
-5.183081249103024923e+00 4.815149094601144952e+01 1.247710937469818404e+01
-5.005059596302018576e+00 4.820568728609711684e+01 9.008507672268478927e+00
-5.210704342450809712e+00 4.816582705052410063e+01 1.265026193062230142e+01
-5.142880712918486807e+00 4.819648512881574476e+01 1.564695328217977810e+01
-5.144313535296305417e+00 4.812968014863454158e+01 9.839937245350041550e+00
-5.094805843534635059e+00 4.817794699732350949e+01 1.370030620937302857e+01
-5.191970937884475390e+00 4.819005651179366367e+01 1.484956222278354154e+01
-5.314552848877994506e+00 4.817750568038128023e+01 8.164819370398832987e+00
-5.076308138214754351e+00 4.813918551470251828e+01 9.468415074454538782e+00
-5.118940356553974169e+00 4.818822099497393197e+01 1.517297492220155242e+01
-5.076361303088380517e+00 4.813290793285546698e+01 8.491754810997022673e+00
-5.228983412229825767e+00 4.826104341214156790e+01 9.839555837366811275e+00
-5.148811932070613828e+00 4.820085230235854112e+01 1.507376945981828698e+01
-5.011253880643824488e+00 4.824707752947265504e+01 7.653528322957451557e+00
-5.159615124916849815e+00 4.821145063385915108e+01 1.543821040028496760e+01
-5.202219024782084311e+00 4.810682657992421696e+01 6.796272744313058389e+00
-5.289807730158038623e+00 4.825006897285364715e+01 7.420254102093791992e+00
-5.131645399832711618e+00 4.819439114213680142e+01 1.547921791512225553e+01
-5.144611970058387662e+00 4.810644346974109453e+01 6.371058460757574871e+00
-5.131224747707935130e+00 4.820253045173707562e+01 1.499287725101387103e+01
-4.961933914659380385e+00 4.821528391976293904e+01 6.921934757844177000e+00
-5.068562778698769478e+00 4.812778670783790602e+01 8.019886227119577882e+00
-4.955436059117243275e+00 4.820850560158410048e+01 5.856855355932593099e+00
-5.095815350146443379e+00 4.827848164010521259e+01 7.892874745233461553e+00
-5.064890826081891007e+00 4.813717178697629606e+01 9.228894453113630547e+00
-5.033965905559851350e+00 4.816871834310757094e+01 1.027031908460539888e+01
-5.092063080437033484e+00 4.819213282770523676e+01 1.384539436483367147e+01
-5.186314978507592599e+00 4.820451137295339805e+01 1.469876769683831697e+01
-5.173253720423675261e+00 4.825759884065196559e+01 1.131810289898797706e+01
-5.099335807770938089e+00 4.829134949263200127e+01 6.894257547201462444e+00
-5.122860551666890139e+00 4.811245096014506828e+01 7.421846490157105514e+00
-5.209193147249632894e+00 4.828307578660761124e+01 7.803848280926061420e+00
-5.322225853788243199e+00 4.821607930446067058e+01 7.783338084236410381e+00
-5.216915299497566494e+00 4.824610330467093178e+01 1.150538327602685307e+01
-5.028756115250116565e+00 4.820213515831438400e+01 1.100115750791047375e+01
-5.152374065492805855e+00 4.820360784845679092e+01 1.578336894925500644e+01
-5.116214874925891998e+00 4.823957152432748074e+01 1.330635565971248369e+01
-5.091353895337634938e+00 4.814046892146684087e+01 9.877028524475392146e+00
-5.066173827345200387e+00 4.816180087260743647e+01 1.103414949579380178e+01
-5.171980090542452224e+00 4.819840814265695883e+01 1.534413212927866077e+01
-5.058450094975579958e+00 4.812832885157524743e+01 7.887475929839657063e+00
-5.131711325215488451e+00 4.812083264814267380e+01 8.397827705624976602e+00
-5.192991935417660798e+00 4.817073317775561492e+01 1.329687125979865137e+01
-5.150269840375360175e+00 4.822752561619768130e+01 1.424290473342069241e+01
-5.043331442232075190e+00 4.817430857365351216e+01 1.089251322313720571e+01
-5.150043957283243046e+00 4.827481595355785515e+01 8.768520117525888224e+00
-5.030327203514731949e+00 4.814712483796410680e+01 8.904851647635188883e+00
-5.143559712954548502e+00 4.817422230275887785e+01 1.420334667720502786e+01
-5.202204307423706098e+00 4.818474464422551051e+01 1.396701444465966979e+01
-5.243419149437851701e+00 4.811597292800696124e+01 6.867883610813290574e+00
-5.259978650754750795e+00 4.817232802457206020e+01 1.091055701512003395e+01
-5.198824872547814557e+00 4.818796226222261936e+01 1.481175683322069148e+01
-5.193833630904982179e+00 4.812258872539003818e+01 7.861000088298690791e+00
-5.101758238059467487e+00 4.826856078858541821e+01 9.376952470390865102e+00
-5.159462974172376093e+00 4.819488938957734803e+01 1.573565736747931254e+01
-5.115458442075267342e+00 4.818529859705847684e+01 1.467703049584005370e+01
-5.228579633416599926e+00 4.820679493954355621e+01 1.346867353634086228e+01
-5.166025909154758899e+00 4.815768404223356214e+01 1.259049491166645751e+01
-5.204194643345545046e+00 4.827168580915715523e+01 9.279110325783310742e+00
-5.150392251490739426e+00 4.819685436109863019e+01 1.507966737549831393e+01
-5.308671834192715266e+00 4.820243892257474982e+01 8.370167536326224678e+00
-5.010973803938039595e+00 4.819427146546417617e+01 1.002757270813525992e+01
-5.104188189145612675e+00 4.819150115259530054e+01 1.437043752687807086e+01
-5.255022479747843533e+00 4.812446404776652287e+01 7.425851882867507747e+00
-5.058011822651367062e+00 4.821858062659357103e+01 1.232234918562053672e+01
-5.314192875169506003e+00 4.822539926972250157e+01 7.601195471235553391e+00
-5.213405204238235058e+00 4.815067680266966477e+01 1.095126099498786942e+01
-5.123286776163043399e+00 4.821678872457774645e+01 1.487981788310032272e+01
-5.142100354605887880e+00 4.820422725024224775e+01 1.497639909913410250e+01
-5.312221005108538563e+00 4.825378834143645435e+01 6.369336118368109645e+00
-5.152789912125255611e+00 4.826839169584470568e+01 9.474996848855633758e+00
-5.237152920961443137e+00 4.812902034725273381e+01 7.510135332376171036e+00
-5.294914904548056356e+00 4.815032167153399456e+01 7.779582924415384682e+00
-5.101433992013269858e+00 4.813312425995172816e+01 9.659802504293271141e+00
-5.181192019275564498e+00 4.823234100636184252e+01 1.401356471271858162e+01
-5.333844497861321976e+00 4.821799622451590750e+01 7.094695171834860759e+00
-5.186415418521374221e+00 4.821388852571712391e+01 1.486789825573589319e+01
-5.199871993903834699e+00 4.812450549264095656e+01 8.063051007455264596e+00
-5.066010424243733823e+00 4.822891512656878632e+01 1.195006397847039636e+01
-5.171535354865183898e+00 4.821034481096710067e+01 1.515907663069140732e+01
-5.049895522230418266e+00 4.826508098432805127e+01 7.687848990705972163e+00
-5.113580417651156118e+00 4.821675712779625655e+01 1.423559241430474032e+01
-5.190394744571988461e+00 4.822634392095797295e+01 1.408692705142502355e+01
-5.107567068903012597e+00 4.820288703572414590e+01 1.486839055391659414e+01
-5.177385237751572333e+00 4.820717166054046743e+01 1.465562510114879657e+01
-5.127020719808697002e+00 4.819878559979747479e+01 1.532799895345027963e+01
-5.252320334102925870e+00 4.826728284218514631e+01 7.578847008698783583e+00
-5.181999409287254998e+00 4.818222957736393397e+01 1.434058659787738144e+01
-5.033160484647968502e+00 4.815777422375334993e+01 9.777239957424399108e+00
-5.259980448792904717e+00 4.811863867477137546e+01 5.977401672772939989e+00
-5.125067371933860194e+00 4.819814786452838007e+01 1.494972135977956285e+01
-5.332474499136784729e+00 4.816839680023723247e+01 5.990391787323771311e+00
-5.113898497081580174e+00 4.816931809800989583e+01 1.329580230138073915e+01
-5.047732743425746627e+00 4.815030108949181908e+01 9.197680072646372551e+00
-5.314987129515018616e+00 4.817287747929016462e+01 7.852198609506118920e+00
-5.130962919514317377e+00 4.816514812059111250e+01 1.333371832312330341e+01
-5.175448065208619219e+00 4.823694625716653661e+01 1.347847886895987202e+01
-5.143722093967339148e+00 4.820147852011306355e+01 1.521159806399440662e+01
-5.065217193607614021e+00 4.823539765178610139e+01 1.146064383870010239e+01
-5.051867103457382768e+00 4.816946399437848925e+01 1.096009020419410795e+01
-5.201210973771991597e+00 4.813852061843499541e+01 1.036837756937057087e+01
-5.120477474787147543e+00 4.819965793405668819e+01 1.497915328868972829e+01
-5.008985855502214868e+00 4.820796399097316964e+01 1.003330580208010225e+01
-5.122021967063608905e+00 4.819901409643293277e+01 1.478399339652391475e+01
-5.137554789394884303e+00 4.820083608055484348e+01 1.546045353094554820e+01
-5.241440687044731206e+00 4.822680769914342136e+01 1.132811076666635230e+01
-5.100027969643974757e+00 4.820570547003108430e+01 1.489538454897991926e+01
-5.215127154217896965e+00 4.814731986902940974e+01 1.114234947780772167e+01
-5.168140052305314924e+00 4.819279514956932786e+01 1.498680421494379367e+01
-5.096611102812149241e+00 4.815785748008939038e+01 1.191298572962015001e+01
-5.140972896233869882e+00 4.812759897229616968e+01 9.720503529349610261e+00
-5.140227502064807830e+00 4.817610534941489675e+01 1.491291829526797486e+01
-5.137934554266004206e+00 4.829221964585796201e+01 6.913296177089772954e+00
-5.175527518047130293e+00 4.819488414711908320e+01 1.522983538980245655e+01
-5.200977304248545430e+00 4.819689350915554371e+01 1.501323023108448318e+01
-5.142040223224667805e+00 4.826761102918840862e+01 9.953387657118309306e+00
-5.038909491817653574e+00 4.824432682120097127e+01 9.575312764217571271e+00
-5.006022988639872828e+00 4.819791929118454021e+01 9.707105113478959879e+00
-5.253899234149919550e+00 4.820832681877540438e+01 1.143942108291148863e+01
-5.281134046095325552e+00 4.824090442817893631e+01 8.970732489472460713e+00
-5.095093276143384919e+00 4.825165087067288994e+01 1.079950661856224414e+01
-5.191668120103239303e+00 4.817619928737362756e+01 1.418165723653108046e+01
-5.095095275157102144e+00 4.814432295847801413e+01 1.043269427105215108e+01
-5.161141767857570173e+00 4.820059383085703786e+01 1.583242605116539181e+01
-5.182459128889143507e+00 4.810428434641327300e+01 6.328295423951391996e+00
-5.257753556775738524e+00 4.819611664050350441e+01 1.149908000440145450e+01
-5.135131718245061982e+00 4.819759259574527732e+01 1.517663005233445617e+01
-5.136039759483422174e+00 4.819747365606055212e+01 1.534831992706343939e+01
-5.142621702660786553e+00 4.821968072432336072e+01 1.453647639524034751e+01
-5.080888784977910966e+00 4.813698255708700202e+01 9.687437266517511247e+00
-5.162031897698757810e+00 4.822429548208876326e+01 1.481032214429948546e+01
-5.155122754799582374e+00 4.825371890480732162e+01 1.161396249329219899e+01
-5.149988509609078946e+00 4.820000201873764922e+01 1.587765672707996600e+01
-5.155511385498114940e+00 4.825171765500432741e+01 1.184976123156615380e+01
-5.136570283185650787e+00 4.818430610476515596e+01 1.503714652325316337e+01
-5.036398027726051829e+00 4.815921026108203051e+01 9.728066634102816579e+00
-5.187169524008446331e+00 4.815872983898784554e+01 1.262712751549218559e+01
-5.175190347309390759e+00 4.811324509628975221e+01 7.144431645482957727e+00
-5.099821571044476975e+00 4.817529817570522965e+01 1.357542146418449569e+01
-5.180181468455245408e+00 4.821307057455243239e+01 1.517238210781446739e+01
-5.142906647722108815e+00 4.820172887172145693e+01 1.515313141816765707e+01
-5.246763983136305320e+00 4.814927629249389440e+01 9.645217253998488616e+00
-5.080593457410439662e+00 4.819198438957563013e+01 1.331901146685789961e+01
-5.114045850319525854e+00 4.823537051020448274e+01 1.370131038685333458e+01
-5.175418213394710421e+00 4.817168688398248122e+01 1.440645019043223307e+01
-5.282818900915915883e+00 4.824054996336013090e+01 8.648487196782165043e+00
-5.186930687093133763e+00 4.824341146907792677e+01 1.215110364735829407e+01
-5.281358303235268004e+00 4.821324279679279101e+01 1.028856293888773621e+01
-5.268384698683578726e+00 4.821174582348797344e+01 1.117662900717385810e+01
-5.115665656732804045e+00 4.818933723849122686e+01 1.452247962646087842e+01
-5.144629629792599523e+00 4.811935741673454459e+01 7.912785843960092436e+00
-5.163120144741343509e+00 4.825272941992755449e+01 1.182586976717727723e+01
-5.134136227433901745e+00 4.828462481642694115e+01 7.992320712141420813e+00
-5.197369432041533344e+00 4.823218894522216260e+01 1.361101581777826830e+01
-5.068690671434382899e+00 4.811830599074496462e+01 6.700883615834393403e+00
-5.230925925064896731e+00 4.817112808086807973e+01 1.219080628688135626e+01
-5.227839025925033134e+00 4.816041407568005894e+01 1.169487183931579644e+01
-5.231481115737643961e+00 4.820171167272032875e+01 1.344710630242948035e+01
-5.164043673768563103e+00 4.818156256738211596e+01 1.526340858089855956e+01
-5.163827317515574222e+00 4.820750477414134849e+01 1.509397703133584656e+01
-5.087112498270825789e+00 4.813310875811241374e+01 9.378895416688102671e+00
-5.240448388144723246e+00 4.815918488568117795e+01 1.040611945223185586e+01
-5.141680636410741023e+00 4.827812860343392032e+01 8.737801531434501001e+00
-5.187892389535348592e+00 4.816966438059942845e+01 1.358242675751653472e+01
-5.123710012092341337e+00 4.819043804415903764e+01 1.517998856479289316e+01
-5.205782772278584325e+00 4.821744320001591433e+01 1.408673560875233299e+01
-5.150266000190725890e+00 4.815792409837931132e+01 1.325877143789564094e+01
-5.161568301207203113e+00 4.810079617884134251e+01 6.506649464107471026e+00
-5.330427215404142771e+00 4.820302481099089675e+01 7.633252385490475689e+00
-5.141475087355564355e+00 4.823387314531162673e+01 1.357211787434579797e+01
-5.178934916544442046e+00 4.821582032286706720e+01 1.473046744048845014e+01
-5.323183064251757024e+00 4.822066794233763432e+01 7.510415673416199311e+00
-4.990331220100166831e+00 4.817563574951658723e+01 8.118690021015824598e+00
-5.240048712128831276e+00 4.817395004313212326e+01 1.241236112799591673e+01
-5.232348934834718079e+00 4.819883355128412461e+01 1.268229094962831383e+01
-5.211949887219442523e+00 4.817056421493852270e+01 1.300484314858521451e+01
-4.968613969706675348e+00 4.816838267317216804e+01 6.209553413902119345e+00
-5.154827420782422287e+00 4.820388799719448514e+01 1.538453246133733643e+01
-5.273234845836070939e+00 4.813025594506670757e+01 6.667856389770749459e+00
-5.148740696192943389e+00 4.820070036897565302e+01 1.599048646380496130e+01
-5.137720012897126765e+00 4.820860847360297186e+01 1.559985374620161558e+01
-5.143106093593665662e+00 4.820646563535078855e+01 1.571392820444055616e+01
-5.221030660557692826e+00 4.824981559670140285e+01 1.059167881684728307e+01
-5.198841445933569005e+00 4.820264763935789176e+01 1.446988830726503217e+01
-5.156055208331746798e+00 4.820151533964407520e+01 1.554970469375400022e+01
-5.179521485454715801e+00 4.819296407623393463e+01 1.488281983792448138e+01
-5.148588716371286900e+00 4.820158070966608221e+01 1.555303272720516894e+01
-5.269584843247626438e+00 4.823931328617233305e+01 9.020389909388317307e+00
-5.242142187099513961e+00 4.814851486435784977e+01 9.453370826261847881e+00
-5.108259033537228433e+00 4.821395904282377387e+01 1.503395010586076452e+01
-5.067440780076295503e+00 4.826053822263074267e+01 9.088984472914690471e+00
-5.142702515930110074e+00 4.827754671833854161e+01 9.191164489682607908e+00
-5.236443516921145402e+00 4.818348821899284218e+01 1.295138727397623057e+01
-5.158082698087718576e+00 4.819762045315572152e+01 1.595738327870832940e+01
-5.197088752512065035e+00 4.825311534625785725e+01 1.112873732474890964e+01
-5.115218090659654493e+00 4.818951970027537612e+01 1.444015011635383772e+01
-5.165084803118324963e+00 4.820844463980587591e+01 1.534969904367711635e+01
-5.103765508755349956e+00 4.823298606980695524e+01 1.355962101080080018e+01
-5.053947291178052303e+00 4.818394421558362239e+01 1.235181109107904796e+01
-5.181836566425859658e+00 4.814158010426712764e+01 1.051518571934880342e+01
-5.182872896022009179e+00 4.820587627013251364e+01 1.540254976171721069e+01
-5.251768153998319200e+00 4.811465343345091839e+01 6.507227260023111803e+00
-5.220302941213193826e+00 4.828135898608363874e+01 7.337929281588659869e+00
-5.117178819439476278e+00 4.813667887213496499e+01 9.932139009883805159e+00
-4.973832804151323117e+00 4.821477956730098668e+01 6.860393567044886787e+00
-5.099554385454623251e+00 4.819884767535818781e+01 1.444866463583235294e+01
-5.164450706828844773e+00 4.814038956999604579e+01 1.094794988898985544e+01
-5.143195939887061030e+00 4.820074820826658168e+01 1.578615247476211714e+01
-5.098651158816184470e+00 4.823038850446917536e+01 1.335882066772545329e+01
-5.158220396040614553e+00 4.816005427197399058e+01 1.344307143680568295e+01
