-5.204709823555270454e+00 4.825391883896389800e+01 1.189918008896395918e+01
-5.215326974869648247e+00 4.787103600800969616e+01 1.140344494821633603e+01
-5.113150551572900326e+00 4.809914645454252025e+01 1.203142787601289143e+01
-5.452975775370203060e+00 4.824652910619323620e+01 1.193208607909129881e+01
-5.283437259413549469e+00 4.813360162898303685e+01 1.203124537806949768e+01
-5.496165864892592623e+00 4.798144700580537148e+01 1.197241216753957005e+01
-5.180219526586081535e+00 4.769503848874077079e+01 1.168195339988551495e+01
-5.223205517435522083e+00 4.796413203100108547e+01 1.120296716268784820e+01
-5.068519644471535912e+00 4.765921490109818137e+01 1.124289039377104693e+01
-5.196353746106808558e+00 4.790191329780212470e+01 1.129853565622375378e+01
-5.279981355378938979e+00 4.800077547614380080e+01 1.189325225844980238e+01
-5.174664236725196709e+00 4.794389878427021046e+01 1.111198235925322919e+01
-5.195684521635774544e+00 4.764065494352534103e+01 1.144032664094379115e+01
-5.440099697160896142e+00 4.768910395649859879e+01 1.155644976224714071e+01
-5.095163397059426558e+00 4.814737589042453436e+01 1.188002490774632491e+01
-5.453629078682381781e+00 4.794046256629430047e+01 1.169756630092969907e+01
-5.064241716510420765e+00 4.812884196146420379e+01 1.180828650741088026e+01
-5.189850935364271223e+00 4.801299216709691109e+01 1.154643478700110037e+01
-5.312928677004351563e+00 4.826233267688113671e+01 1.135489971361259443e+01
-5.101946133579287057e+00 4.796665848125053344e+01 1.137221805702341548e+01
-4.997890574621370874e+00 4.823257398714591204e+01 1.150938443669342526e+01
-5.288423580775337918e+00 4.805361665300112151e+01 1.139715613992815335e+01
-5.339070674689597951e+00 4.777702643159042140e+01 1.130137228555904549e+01
-5.216459636549301671e+00 4.800847096027434446e+01 1.109763944642541844e+01
-5.464311151539918754e+00 4.772740444234280943e+01 1.183133023346000101e+01
-5.296246589607823019e+00 4.807199425407419824e+01 1.158143348282399110e+01
-5.117700017859799111e+00 4.818070434634492472e+01 1.191826591701005178e+01
-5.097819466567818480e+00 4.791712865060483040e+01 1.167048255882994034e+01
-5.222305624537743718e+00 4.762852088998609190e+01 1.127003172750947968e+01
-4.886431525868779602e+00 4.807337648939928698e+01 1.132932961123631443e+01
-5.239421142292138178e+00 4.774760626335932301e+01 1.141481557686546999e+01
-4.943465389850229208e+00 4.791166778343666266e+01 1.157444926119946516e+01
-5.476153407436192389e+00 4.777637747905705368e+01 1.137079833241971372e+01
-5.553186674449017701e+00 4.797025105691863445e+01 1.146358838727276108e+01
-5.173862906799036487e+00 4.780040202961817641e+01 1.139134717694516219e+01
-5.329859839772384866e+00 4.830247407094252310e+01 1.149319275676204022e+01
-4.953370992045013743e+00 4.812262708003837020e+01 1.159238912366369156e+01
-5.492071766977387526e+00 4.781356147049810801e+01 1.175974561358009041e+01
-5.132335905511030028e+00 4.821164450229507992e+01 1.184622788299661522e+01
-5.187211706616653650e+00 4.799663639237064672e+01 1.179689914147003549e+01
-5.083970820102267751e+00 4.828271574839263991e+01 1.155778808597517759e+01
-5.048777200340522242e+00 4.775342667016649756e+01 1.159472516919165308e+01
-5.177691125103353720e+00 4.807320881592984563e+01 1.117973960172679782e+01
-5.166660030492124633e+00 4.794699998056117352e+01 1.161781344239785341e+01
-5.009233715876982629e+00 4.787949837554246102e+01 1.165231868727320297e+01
-5.161077814336296754e+00 4.799971321047547690e+01 1.141085751293195649e+01
-4.836886086904733872e+00 4.804192783997602589e+01 1.171629366658903493e+01
-5.330367270488588716e+00 4.773291741358799811e+01 1.188998128665543952e+01
-5.486496084085847436e+00 4.817317369489109780e+01 1.193444753108550138e+01
-5.087906052381835131e+00 4.799633452725692706e+01 1.107740570281848491e+01
-5.216578379728703752e+00 4.792913827650676240e+01 1.125181917078359461e+01
-5.205857765531548331e+00 4.780714037752727563e+01 1.137177317453846115e+01
-5.097036226947087911e+00 4.813303589168174312e+01 1.104577852237540370e+01
-5.210989946409657847e+00 4.787126258839676041e+01 1.197797729290448387e+01
-5.245522828493861311e+00 4.774315807560745384e+01 1.132054192595635023e+01
-4.841064225026672219e+00 4.787603008329826793e+01 1.134955965775480280e+01
-5.213580296357896771e+00 4.829490649007052383e+01 1.141189103134343696e+01
-5.308063223707772060e+00 4.777515861543847109e+01 1.134621672378145263e+01
-5.323998839815478945e+00 4.826416918182658122e+01 1.163792620574981918e+01
-4.983795571958378190e+00 4.778276366308416812e+01 1.178691291011608122e+01
-5.255166816377242256e+00 4.769964265291675787e+01 1.163933003642576658e+01
-4.985050852090404661e+00 4.802053143320337369e+01 1.187103225900800574e+01
-4.990886222512970427e+00 4.797598489911906228e+01 1.135344874387337200e+01
-5.180843648047501304e+00 4.784817693311955367e+01 1.138754870142619069e+01
-5.486310366760493551e+00 4.827120500887328092e+01 1.147771714370866469e+01
-5.203537187650403517e+00 4.798343354536326189e+01 1.134940009803216299e+01
-5.369935946697226292e+00 4.777433991338578778e+01 1.179155654634236505e+01
-5.085990107627644363e+00 4.816482193457785854e+01 1.202536309256705138e+01
-5.198091678350142075e+00 4.805641473981278011e+01 1.106961089317140079e+01
-4.977776156134662067e+00 4.767655809251639454e+01 1.165263323384790795e+01
-5.066662878118032509e+00 4.767609490791937077e+01 1.162007636390444887e+01
-5.189771761717917542e+00 4.787307825451736676e+01 1.128832773084079122e+01
-5.203778623860454644e+00 4.803259734047321672e+01 1.168346244981210269e+01
-5.169238142842721651e+00 4.830711193005142690e+01 1.146409738290821245e+01
-4.998244885342463917e+00 4.799313554257437886e+01 1.130524493392421626e+01
-5.317292786508121871e+00 4.803776434020407748e+01 1.108268239819199152e+01
-5.192709077454161104e+00 4.800156478410397654e+01 1.192861952553627880e+01
-5.532303577994550636e+00 4.793073354304357281e+01 1.180328295352090784e+01
-4.857066495317759802e+00 4.791536068899061007e+01 1.140184596201430978e+01
-5.219618246797751659e+00 4.836862276805351968e+01 1.136633112988030803e+01
-5.016379075070464211e+00 4.816901161522653751e+01 1.183830007642816184e+01
-5.518008959934415536e+00 4.790681636454197445e+01 1.149194872832536696e+01
-5.194353374047077310e+00 4.808092744682956265e+01 1.183913703663552575e+01
-5.187562747541161201e+00 4.809628737979054591e+01 1.146301787287374907e+01
-4.977499205408516758e+00 4.807616531593981080e+01 1.148892150838001314e+01
-5.187110827550302616e+00 4.812248863217394756e+01 1.128819666462078963e+01
-4.993983526693566155e+00 4.804353414778935871e+01 1.106679895628858823e+01
-5.154719084743307533e+00 4.814229760968622429e+01 1.198330640606037889e+01
-5.318638031256003096e+00 4.789441649712304638e+01 1.147834386232405279e+01
-5.066412375173164229e+00 4.807918747810791871e+01 1.136225855823675701e+01
-5.437790801395011364e+00 4.806787261512293696e+01 1.111057229300887350e+01
-5.413595567849504242e+00 4.823702996803273635e+01 1.114128674412103948e+01
-5.198323492617376473e+00 4.800232315204702616e+01 1.196069539252451186e+01
-5.008589082840792628e+00 4.830022087837230060e+01 1.121011360289183578e+01
-4.970770158397646910e+00 4.797174325372274950e+01 1.104383659864828893e+01
-5.421150926108921908e+00 4.788282419135140344e+01 1.117298707067009111e+01
-5.191211803014916804e+00 4.825237467287971782e+01 1.155353350407472135e+01
-5.101755253978764948e+00 4.810987090836353985e+01 1.155000807431845367e+01
-5.225366223228426144e+00 4.804339584090911330e+01 1.110452857630984980e+01
-5.097128497815799797e+00 4.774376532862156353e+01 1.119533538529875827e+01
-5.082433081772135708e+00 4.793930069120638393e+01 1.181500162737409987e+01
-5.299227937038797798e+00 4.802446089321559697e+01 1.197847290034445322e+01
-5.245159674307865671e+00 4.766481158295037091e+01 1.164000269246412600e+01
-5.111384331551067639e+00 4.792461072805870970e+01 1.180996937379559242e+01
-5.547484341869838964e+00 4.780263233893106189e+01 1.157461296412839147e+01
-5.199775043672860697e+00 4.821419809055639405e+01 1.115022731293506730e+01
-5.290005529352329816e+00 4.783380385752016650e+01 1.121289417719330750e+01
-5.283049855915578519e+00 4.818899668136691616e+01 1.106521274747086281e+01
-5.358805235158263791e+00 4.774863841054115454e+01 1.126098858834756022e+01
-5.038601297229973852e+00 4.797901623297094886e+01 1.137591422609979119e+01
-5.283701977996850374e+00 4.783188515420947340e+01 1.165010184485254463e+01
-5.196245845576439315e+00 4.799574024680303097e+01 1.126107598255678788e+01
-5.459891928267847305e+00 4.819234618638303402e+01 1.151099797255623969e+01
-5.276506240596807729e+00 4.799556459942134978e+01 1.174693168862738446e+01
-5.230664812878405456e+00 4.771678041809261828e+01 1.169227855811175765e+01
-5.070354334617666048e+00 4.782667335449517054e+01 1.174909876401799380e+01
-5.315186486787758291e+00 4.805259198035521706e+01 1.125176197991876670e+01
-5.041689101125960804e+00 4.779571385118661198e+01 1.186451046696794798e+01
-5.354236889274405442e+00 4.789725150033309120e+01 1.130764610650268764e+01
-5.213016777028050441e+00 4.802218545239595926e+01 1.108079189419069088e+01
-5.134408129407526111e+00 4.774646829108358759e+01 1.167248246480309426e+01
-5.197218771495469625e+00 4.798938328592127789e+01 1.182032895305214382e+01
-5.301084009891900983e+00 4.808855573635792524e+01 1.191197982443936532e+01
-5.060120954697803874e+00 4.806283119287587624e+01 1.151316041493422127e+01
-5.490329750341630621e+00 4.814691764178623146e+01 1.150139362515695751e+01
-5.296167106116213219e+00 4.794159957024851337e+01 1.170761466032660714e+01
-5.091135402321063097e+00 4.817885712845213675e+01 1.103699847083758812e+01
-5.216473452776742903e+00 4.801513596164592457e+01 1.156012377891166665e+01
-5.264834560005593467e+00 4.791948688341821594e+01 1.183978743873518802e+01
-5.253874039887702629e+00 4.816627041466547610e+01 1.198867511953599418e+01
-5.222203845147710410e+00 4.796748523115999063e+01 1.198082980817141596e+01
-5.252605135099009281e+00 4.796726381263572847e+01 1.164453772615913962e+01
-5.212247180476230923e+00 4.785972954011577940e+01 1.107760746067985558e+01
-5.095752048990788374e+00 4.801156629576603052e+01 1.151626488548387783e+01
-4.857268324746453203e+00 4.783090499650621297e+01 1.144772236014388689e+01
-5.247176567642638290e+00 4.818715722017469005e+01 1.111772923286331860e+01
-5.113408012681097681e+00 4.825240148202946955e+01 1.168924922137277456e+01
-5.492900794133253939e+00 4.788254928101587637e+01 1.137377463031872615e+01
-4.941681459748401117e+00 4.816571999599996445e+01 1.203132913502542145e+01
-5.270432721517351204e+00 4.825913125650541957e+01 1.115709571699897573e+01
-5.076507328010710474e+00 4.823366440954365686e+01 1.168010148138034232e+01
-5.181312284649154165e+00 4.820202235655401068e+01 1.116471262995504077e+01
-4.976266601978838189e+00 4.826614985315309525e+01 1.109386845872270477e+01
-5.135335464647988069e+00 4.838573194604425254e+01 1.175619547738368453e+01
-4.962611000294240071e+00 4.820432248176699375e+01 1.175646619680192728e+01
-5.192958950978137089e+00 4.791533285683429710e+01 1.172429715358229885e+01
-5.234372871585820874e+00 4.806338981111299802e+01 1.114657695192705944e+01
-5.282354235683649257e+00 4.802227386240811313e+01 1.173471444089757476e+01
-5.190756838984352584e+00 4.799713566166655454e+01 1.143653501478469536e+01
-5.157972347901847776e+00 4.801862233564122562e+01 1.179035804995141135e+01
-4.916340605700868949e+00 4.810609067825701146e+01 1.151797694700535146e+01
-4.959506178534385690e+00 4.787542790207115218e+01 1.155410550971119044e+01
-4.982995527584541229e+00 4.816809584027100755e+01 1.186862255088311535e+01
-5.364915412583597387e+00 4.790294251007597381e+01 1.179546621166499598e+01
-5.188106367140314035e+00 4.807450468664615784e+01 1.160283801065946818e+01
-5.118204025596176265e+00 4.783385531357755838e+01 1.169212489757486395e+01
-4.933434958462812325e+00 4.801362643197657576e+01 1.166407132429387872e+01
-5.463478555221574773e+00 4.775706789348988934e+01 1.176765276008650041e+01
-5.244016583897464834e+00 4.809078928294434263e+01 1.130582352256665501e+01
-5.061127021703351048e+00 4.766495270397955153e+01 1.117427913110868865e+01
-5.175335588884741433e+00 4.797248235363228019e+01 1.200091822522501417e+01
-5.431337753872323759e+00 4.803582136378657452e+01 1.124127280393398109e+01
-5.212550604255338449e+00 4.826713618616821577e+01 1.201821711910757173e+01
-5.313250883920193957e+00 4.796072763930773419e+01 1.179252933305405548e+01
-5.387552739452915240e+00 4.811269411797081830e+01 1.158975124577458971e+01
-5.163064798309697778e+00 4.793118012208786638e+01 1.198957047338418391e+01
-5.179113439185277556e+00 4.798983533666458356e+01 1.149347504835616185e+01
-5.287156286745990030e+00 4.790084021812342030e+01 1.125148039588496296e+01
-5.083273702885667156e+00 4.790595380246816148e+01 1.175168917557458848e+01
-5.224523963362250001e+00 4.826411477035276221e+01 1.126433135872068902e+01
-5.109611433068960373e+00 4.771358086747039806e+01 1.203257542507948052e+01
-5.280063424491237001e+00 4.806012514797978952e+01 1.176400084473651475e+01
-5.235318123920496447e+00 4.814535806677427132e+01 1.170911214239129450e+01
-5.493401689194138626e+00 4.788211285250091009e+01 1.134106035649959843e+01
-5.038679165913409363e+00 4.796698818277973686e+01 1.114619607067137075e+01
-5.129081553255298687e+00 4.801210428460171897e+01 1.165246111354421643e+01
-5.516594307732006541e+00 4.823562516676891931e+01 1.115332095599419304e+01
-4.855627763618551640e+00 4.806550017245223927e+01 1.144571848409881376e+01
-5.381482939080074246e+00 4.824698223949474141e+01 1.153018966580180660e+01
-5.286654444466027947e+00 4.831893261097948056e+01 1.161235500323372527e+01
-5.093921597293394221e+00 4.798723947349815688e+01 1.163755704483498121e+01
-5.275757639630041851e+00 4.795749643919536709e+01 1.162296301042804103e+01
-5.066209174955171868e+00 4.788716168532853601e+01 1.198828386324082018e+01
-5.525434639692881511e+00 4.823091917460521927e+01 1.199035481630690647e+01
-5.200490890043259817e+00 4.799771888087091298e+01 1.138615625776968621e+01
-5.364286158616764943e+00 4.780165948902396877e+01 1.146113387775499959e+01
-5.046104291427484512e+00 4.784572623597595964e+01 1.197344219062352089e+01
-5.164655239314143387e+00 4.766139749684273141e+01 1.153583921894651532e+01
-5.181661604856165226e+00 4.799256170046881920e+01 1.192621196038708753e+01
-5.117468505678043122e+00 4.804023548251579712e+01 1.108161393373021042e+01
-5.217934075150256312e+00 4.803046697782058061e+01 1.187140385603225212e+01
-5.186317065316199404e+00 4.802275813352994760e+01 1.157614300220917869e+01
-5.422063965717272893e+00 4.779191947098685489e+01 1.127479636658306283e+01
-5.096745885557791844e+00 4.802049302811192888e+01 1.181944668025908918e+01
-5.182022439323257679e+00 4.803569863280193886e+01 1.137448944481298341e+01
-5.221584616713990989e+00 4.835820409118539231e+01 1.182260555453325779e+01
-5.376079568539334552e+00 4.801102892132800548e+01 1.164301817089411806e+01
-5.394633073092902187e+00 4.779025327733535988e+01 1.137756140861459997e+01
-4.987275354149830697e+00 4.818939204106791863e+01 1.144619289902509429e+01
-4.931332843543578370e+00 4.822714743519154013e+01 1.177056220278714349e+01
-5.113027069456862250e+00 4.833066561995438093e+01 1.149621052118829567e+01
-5.128596811894516883e+00 4.796205719218826147e+01 1.187957388717979335e+01
-5.430095833794641003e+00 4.829073061855436322e+01 1.188594790300738779e+01
-5.146888780342532499e+00 4.800037970882966221e+01 1.157035457723798189e+01
-5.206126668002732494e+00 4.799216387526274730e+01 1.132516475847281257e+01
-5.050192441919418407e+00 4.831371494138488032e+01 1.177189684827218663e+01
-4.870255937771065469e+00 4.803282688543975354e+01 1.144718978770050377e+01
-5.315029748192594106e+00 4.790506197223529483e+01 1.185895658684808218e+01
-4.980135871226837985e+00 4.792737584455586841e+01 1.171653372815849892e+01
-5.421829952781391349e+00 4.813702688644519156e+01 1.120366308386188159e+01
-5.220894594236907160e+00 4.790756655165597522e+01 1.130703287501981968e+01
-5.494035220653692875e+00 4.817592961631180515e+01 1.151925708128334591e+01
-5.089284686063938246e+00 4.801053567213002538e+01 1.121668972497819716e+01
-5.202069062959472134e+00 4.800235279216209960e+01 1.124575767414884808e+01
-5.508953068487024041e+00 4.784933868898664144e+01 1.116955133673707756e+01
-5.197488684305086259e+00 4.795162098646726889e+01 1.123271475485674031e+01
-5.207870605637911154e+00 4.781369306556671006e+01 1.179998785003962247e+01
-5.062487809632776781e+00 4.765905484452903096e+01 1.157894668347220879e+01
-5.012860833195614596e+00 4.784834104986227032e+01 1.188117621683628222e+01
-5.141132785015460449e+00 4.799794775050830253e+01 1.172750785208583046e+01
-5.043053571419759962e+00 4.817047632340351981e+01 1.202300098962797037e+01
-5.211695659536117020e+00 4.799138548137777605e+01 1.118889699443824171e+01
-5.170381129215871674e+00 4.803069456967734396e+01 1.193611824247624220e+01
-5.094552729981463024e+00 4.803003117922550302e+01 1.191339193822141240e+01
-5.275055636580760599e+00 4.769880182672762459e+01 1.103819882186318502e+01
-5.267770322140139072e+00 4.783180513427266334e+01 1.138222106419108215e+01
-5.209177170377707000e+00 4.800863544737725164e+01 1.200708150872990387e+01
-5.452587827605733573e+00 4.804806382790295771e+01 1.202744325887139887e+01
-5.054767085615826439e+00 4.800100029185311712e+01 1.186643484314727992e+01
-5.071086636967486072e+00 4.820359163302241967e+01 1.198695735079605207e+01
-5.190881309547486389e+00 4.804199830791050374e+01 1.167518446717116198e+01
-4.818764472013764788e+00 4.805170194876053102e+01 1.161231127545775976e+01
-5.186714216234245001e+00 4.762747317680947390e+01 1.190932401906180971e+01
-5.201824113262098592e+00 4.799930497507815375e+01 1.153117862202611832e+01
-5.296899411401032154e+00 4.805179846695263990e+01 1.120452772752839721e+01
-5.474099193224886584e+00 4.776725635458124941e+01 1.131043530864677393e+01
-5.312551522456545605e+00 4.784535023956448896e+01 1.190935364196101709e+01
-5.118476950615417742e+00 4.799218086583393017e+01 1.121666870998825516e+01
-5.140832432122294016e+00 4.807021108950101507e+01 1.185684651899397046e+01
-5.445494510852088688e+00 4.805380076768481956e+01 1.165051180329436598e+01
-4.976042422027136425e+00 4.782008103919491759e+01 1.173866622459132891e+01
-5.317660888815703757e+00 4.780149930199562647e+01 1.143286266267110207e+01
-5.222561347990968272e+00 4.799328966269754204e+01 1.193266136590152549e+01
-5.088639665183487537e+00 4.787677379397469224e+01 1.199899765229790916e+01
-5.537190787338136744e+00 4.805774085525175110e+01 1.160156838708377691e+01
-5.245890042204615966e+00 4.812349123497741488e+01 1.116271716817084680e+01
-5.284965982164349541e+00 4.805830073444824535e+01 1.180073540768388263e+01
-5.266514090881345034e+00 4.813337128492046446e+01 1.134831821959254761e+01
-5.120695544029285173e+00 4.777713873471034844e+01 1.135306124903502933e+01
-5.411685475524259381e+00 4.826827711910461716e+01 1.120881620761501551e+01
-5.066329624565974576e+00 4.789695938685240151e+01 1.183186460524636985e+01
-4.969190318430793063e+00 4.804123174127484219e+01 1.157990714972368806e+01
-5.366368292909535320e+00 4.786499801930791165e+01 1.107035956212051175e+01
-5.318069196183652814e+00 4.836411271943806867e+01 1.130889834335613209e+01
-5.529235372096572121e+00 4.815162448245562388e+01 1.130025943093932028e+01
-5.350771383766921296e+00 4.807466057178827157e+01 1.179204566856190972e+01
-5.128495796338654600e+00 4.823591269764425249e+01 1.150278589066846635e+01
-5.510782350918889350e+00 4.787814551471668523e+01 1.155164741114338156e+01
-5.281674758563893235e+00 4.802713668821745330e+01 1.195157234792805134e+01
-4.974836450050962533e+00 4.773667676340306087e+01 1.162322940006560579e+01
-5.013363368747583593e+00 4.773403126565305143e+01 1.127116616319272602e+01
-5.141521270101105934e+00 4.805960856919572421e+01 1.114750927832919913e+01
-4.950693928967725199e+00 4.821842638752686838e+01 1.182317209655761481e+01
-5.123119712889311117e+00 4.803952080999606977e+01 1.159474721325824120e+01
-5.162665244346620774e+00 4.820624988685052159e+01 1.130423369226771513e+01
-5.445928771536282298e+00 4.788090389322850626e+01 1.124877323296224496e+01
-5.013398433369013141e+00 4.827601972038718259e+01 1.159509703618238063e+01
-5.102867128802351715e+00 4.837309409595759746e+01 1.178968750496506424e+01
-5.410876183240523218e+00 4.767293722089973329e+01 1.106916933877880282e+01
-5.158539367511511209e+00 4.810201773849596663e+01 1.160551128011726973e+01
-4.959319885507576409e+00 4.793930757725624403e+01 1.137447648642894649e+01
-5.176998725799854206e+00 4.805092402119928607e+01 1.127392405000827225e+01
-5.395503931298160083e+00 4.834257733234144894e+01 1.141300744880969376e+01
-5.543204250898162933e+00 4.800061611106608694e+01 1.142360615153466696e+01
-5.397028487872324476e+00 4.768043547314168507e+01 1.190669763561867001e+01
-5.415598058617464794e+00 4.795195716763138449e+01 1.135934942057446584e+01
-5.303364135280514979e+00 4.798076344865345533e+01 1.148184718932269632e+01
-5.048739342237150041e+00 4.786951820988688411e+01 1.142094003804460023e+01
-4.926023148178222399e+00 4.789000252633057642e+01 1.134771824789624084e+01
-5.172892925562770472e+00 4.789297495952481398e+01 1.163064614036583677e+01
-5.132569419781380482e+00 4.817689070593161205e+01 1.174414939982775685e+01
-5.250185325875388109e+00 4.803597270091814408e+01 1.144810474574281400e+01
-5.135410718636864935e+00 4.796441160971184559e+01 1.181240861758349148e+01
-5.229681382819688196e+00 4.805706870474479331e+01 1.160955082998698273e+01
-5.223477726590600945e+00 4.791979114231457970e+01 1.148194033294057981e+01
-5.509330737268602007e+00 4.817658441136275371e+01 1.133612029335230886e+01
-5.059738946828977291e+00 4.814477439257850477e+01 1.124164088325904132e+01
-5.381417788753092069e+00 4.819324578508521739e+01 1.105329608917368844e+01
-5.002178465437523869e+00 4.813291911209523732e+01 1.131939189261849243e+01
-5.321808307763413737e+00 4.804028373810228913e+01 1.153934333515855570e+01
-5.202175038873310342e+00 4.800177570752149592e+01 1.159403028835244953e+01
-5.014471576895696003e+00 4.806590535553674215e+01 1.183505747363335203e+01
-5.227536984676177667e+00 4.794650460639847012e+01 1.116041159356911727e+01
-5.351247022407189746e+00 4.808282698740899264e+01 1.177199085018179758e+01
-5.184126235944908068e+00 4.834283037177399933e+01 1.194478545481445231e+01
-5.179447733700967227e+00 4.800636003025094567e+01 1.186389223539683790e+01
-5.237420776264360534e+00 4.795897360895849459e+01 1.181065010215180600e+01
-5.229634786345814135e+00 4.801505852841487609e+01 1.138301521639824720e+01
-5.235256332570243920e+00 4.791241124067573054e+01 1.131561255434391988e+01
-4.865315999960106552e+00 4.786079197233032545e+01 1.125128788520388312e+01
